5.787691 51.488289 81.638336 
-33.960045 -40.533360 54.629028 
35.696239 5.646455 19.782410 
-43.525036 9.543252 25.187723 
-6.677062 2.270038 113.117561 
-45.797169 19.215828 85.620621 
-44.987572 30.832680 68.541451 
16.542416 -48.988178 76.936607 
23.730352 43.386036 80.812103 
-33.261082 -44.603283 58.545044 
51.514038 -3.585240 76.488762 
50.611340 12.390707 67.496407 
-12.927201 7.642655 111.883728 
-5.261336 19.733147 7.161535 
48.867516 -14.889254 79.166809 
-33.529411 37.811260 77.637489 
14.710679 47.615528 34.416409 
-51.975788 -6.384672 45.467537 
20.600290 -47.505177 74.301926 
-7.457365 31.594265 100.733307 
-8.121061 -1.169204 112.434883 
38.460060 -23.111336 85.649101 
11.723038 -50.959702 51.061302 
-2.097642 49.445793 77.022903 
11.922603 -41.415039 28.591158 
14.867877 9.104841 111.281425 
38.957481 33.735813 41.557037 
-29.365356 -46.251907 62.544853 
19.134167 15.043721 105.076508 
40.884937 9.398505 95.120277 
31.334969 -35.161106 32.381901 
43.520065 -29.760468 51.085026 
16.673534 -51.732231 78.942688 
-14.515812 49.624432 39.194260 
-5.978693 -23.798088 106.723557 
6.735311 52.195152 41.552803 
-44.396343 -16.258144 87.979218 
30.501036 24.123365 22.082676 
45.060356 31.145506 48.057823 
-14.127117 47.470150 76.158493 
-29.747883 19.834473 99.717056 
-42.039543 -32.431679 63.557861 
8.470947 49.546303 79.795105 
40.710472 30.239075 35.910282 
-51.478756 -9.768975 45.147980 
-8.238948 19.943943 8.914853 
42.959358 33.104004 51.812927 
25.287157 39.773842 29.171675 
41.901928 32.219727 33.328030 
19.771404 42.186134 28.620096 
37.165306 -7.860949 19.977869 
-8.069259 -19.411980 7.941025 
-27.293303 41.138123 76.959869 
-0.419661 -55.593143 57.058651 
44.205200 -27.712326 31.756779 
-31.893112 21.261120 22.166906 
-31.277916 23.918045 97.864983 
11.943487 -29.660536 102.861710 
39.669025 1.518010 22.613968 
40.496204 -27.293159 27.206192 
-45.758835 23.883501 70.743484 
26.055275 42.573349 77.582291 
50.290665 -14.847815 55.359943 
26.608461 22.893124 102.342690 
-27.414457 15.046371 15.787731 
-30.033243 2.672200 11.916464 
48.580238 17.219732 78.179153 
-22.788483 -31.925045 19.606295 
15.216286 -51.692535 63.554710 
-11.383744 -43.898670 89.818863 
1.811189 8.120532 112.387344 
-39.659805 -0.903768 97.445900 
-49.726608 -23.543989 56.049599 
-51.689388 6.858653 65.994461 
-48.512775 19.372787 67.138870 
3.326985 -4.493640 0.569480 
-29.866438 -37.265251 30.072775 
48.021297 20.889469 73.007889 
-47.221893 17.907475 76.476982 
-41.528343 35.945553 48.464127 
-15.516842 -50.162796 67.150681 
14.079432 38.785091 22.257610 
-15.546550 52.066765 36.987156 
-8.052021 35.445137 98.681503 
7.307014 -17.062780 109.468956 
-35.266144 11.690869 95.574135 
-15.750769 -9.448887 8.827780 
-8.892736 -50.814350 70.788994 
0.957860 28.222982 12.783669 
-12.642988 25.782520 11.105187 
-39.352371 -1.518010 20.130865 
-47.684395 3.707813 85.926605 
45.762157 13.678026 87.646027 
20.356331 -38.682961 89.687996 
-48.079689 -11.902659 32.172768 
38.066422 36.433578 62.433441 
-12.343726 34.681744 20.956432 
-45.001614 16.521019 87.735397 
38.976887 -29.433956 77.542206 
0.803164 -55.548428 60.246140 
22.623817 34.913242 92.018425 
-3.215934 54.383884 50.609016 
-19.290976 49.274204 65.087456 
-23.520905 -29.450321 22.101274 
3.949801 -6.748665 4.038120 
-16.292505 52.770920 54.487057 
-50.775940 13.344974 58.847092 
-42.913994 33.094238 75.031471 
17.654621 -11.802349 10.677245 
-9.524311 50.052551 31.046427 
-23.136269 -13.306776 106.375732 
53.163208 -12.112854 68.582901 
-8.797996 45.959354 29.649366 
-15.245318 -44.697079 81.130341 
39.019798 -30.315525 27.641926 
-2.831661 -41.585693 25.407949 
-7.495901 -46.666618 85.669907 
2.212489 3.852840 116.938271 
23.441093 45.961514 74.457565 
39.801712 36.954071 42.815910 
-21.330736 -31.484760 98.675385 
14.286533 23.978411 102.820335 
6.806135 -1.695776 113.071526 
-46.954338 -2.820952 26.977993 
-11.520213 48.945446 35.335678 
5.734212 -49.192528 80.927124 
43.886787 6.230631 92.770340 
31.705803 -31.302986 28.026737 
-7.719466 -51.732815 75.267166 
-43.333122 -33.368820 66.832664 
30.992836 38.328583 31.417902 
36.309448 -41.115620 63.339638 
39.397255 23.028175 84.816299 
-39.725624 -36.997688 74.420815 
43.758583 -32.166451 38.200745 
-1.149298 1.242360 3.079453 
-46.567959 0.164818 29.096630 
-4.109680 39.652363 23.856869 
24.257015 43.943306 41.661419 
10.368317 52.575787 78.000320 
-5.029025 51.622707 76.561508 
-37.299500 -35.154461 46.430115 
-55.430420 -1.138097 59.598450 
-10.857462 -37.961681 22.208185 
47.372589 23.958336 74.427574 
-1.452013 -45.830090 30.092545 
-26.828037 -36.681938 31.454071 
29.323269 1.894831 14.320352 
7.935025 45.810104 28.633064 
4.562954 6.317584 113.134674 
-18.687075 15.323348 108.198532 
5.923561 -52.617374 44.187210 
53.819252 -5.434976 74.008270 
40.736408 -28.165651 33.527214 
6.138332 -54.394928 56.517868 
-15.406091 13.085941 107.227119 
31.496487 -21.122673 95.241531 
44.221798 31.226612 36.464912 
4.900342 53.593582 69.294647 
17.618771 -21.408514 14.169935 
-37.547623 -28.620899 35.915352 
14.328102 -12.351738 9.241433 
2.175289 -49.260384 79.036552 
-28.884022 -0.353388 10.997709 
31.190598 24.454483 93.423538 
22.554607 12.998671 12.842900 
32.342270 21.542351 97.935471 
44.443745 -1.289018 25.689922 
27.907459 45.020119 42.416008 
42.439087 28.950432 72.784195 
53.662071 -13.732061 56.231350 
51.811058 -11.546870 43.126396 
-42.949924 11.816916 86.626488 
50.651810 10.061351 44.573547 
31.831713 39.702858 73.929718 
8.827003 -49.774315 43.167503 
26.355682 7.683044 103.757225 
40.663460 -27.616100 80.080360 
-8.158947 -51.370636 42.573753 
-11.740706 30.406733 14.478636 
-47.665611 21.182356 70.339066 
-43.568157 -27.038694 44.481506 
36.695587 -5.540736 17.048206 
-28.305063 22.521088 97.157799 
-11.880257 -9.817181 7.928134 
11.707870 -32.800518 101.574684 
44.125652 30.174753 61.859104 
-23.728588 -48.799927 66.264259 
35.861309 -2.691556 18.656363 
28.399731 20.136002 15.524265 
-3.531498 15.246088 5.442966 
15.967726 49.259056 85.884178 
51.182358 7.529757 70.183380 
48.337780 3.603817 89.911377 
19.958973 -50.227406 79.751678 
31.679573 16.119875 97.419273 
3.691991 -52.766373 59.131676 
36.161705 38.245834 75.455025 
46.468018 16.167280 38.573978 
-37.247959 39.367916 52.575840 
-39.576065 32.734856 78.190163 
35.771385 24.031975 92.583817 
-50.438622 -5.846737 73.512802 
12.850781 -50.036999 44.150578 
-16.514700 -47.643097 28.686491 
43.685741 -26.475143 71.935593 
-8.309038 48.405693 33.949276 
21.914717 49.584267 74.328194 
42.304302 -32.633015 49.772743 
-4.838361 -41.420082 22.465500 
-48.655704 -23.167841 72.719589 
-20.683653 -48.118668 32.304550 
-19.390558 -46.399529 35.188576 
-7.149484 -43.516193 86.995529 
26.487328 -4.620425 103.953163 
-25.958378 44.877937 76.500305 
22.348568 14.619115 104.082672 
-44.803131 -18.506443 84.656166 
-30.517111 14.826974 17.376976 
3.236157 -39.411160 93.413696 
5.940188 -50.341290 41.457764 
17.359835 -24.618267 15.057560 
-44.345634 31.772400 45.236271 
5.049745 -47.384987 84.021919 
-18.285734 51.353867 57.446106 
-12.135151 1.119535 113.710632 
18.335529 11.956146 106.200729 
7.115911 -34.583382 15.097386 
-45.556637 -5.624380 29.182697 
7.866035 -35.398849 18.533119 
50.568871 -9.572243 70.978455 
-45.874805 4.729924 88.785103 
-49.913361 16.299026 56.485912 
47.678974 -18.732738 36.480022 
-39.372608 36.412083 78.298706 
-14.750619 42.461517 85.837051 
-15.423266 9.748423 107.944351 
31.751915 -40.679707 78.091011 
-43.767284 30.188160 42.204964 
14.588686 -39.623688 94.570450 
10.215649 29.181507 11.809482 
35.380905 -24.229166 93.557869 
35.638649 -12.033288 21.978069 
-43.855679 -21.396631 87.642586 
-2.639015 28.959204 11.450333 
30.784697 -1.918720 101.301140 
7.621592 -20.892395 109.237572 
33.396759 -44.213009 55.482201 
48.279625 26.672245 63.329323 
33.775742 33.725784 85.751068 
15.099346 53.482700 50.794613 
-23.365822 -46.067802 46.779228 
11.631587 -51.613754 82.901466 
-35.860229 31.971251 90.195335 
-44.546154 26.173176 74.297813 
-42.579567 -16.897268 32.661533 
-44.444092 6.161791 24.528769 
34.285805 31.527699 29.678717 
-16.462708 -13.951650 106.707848 
14.211296 11.623074 6.136385 
-10.406632 51.178101 64.979599 
-54.614643 -4.728519 69.088051 
-18.258179 51.331352 43.443527 
-7.515048 -51.677269 49.352432 
-24.236767 31.829098 96.871239 
-37.008301 36.515179 69.735031 
4.047750 -54.799557 62.274094 
50.527527 -11.793560 65.987358 
-28.510155 -10.581854 103.332962 
-27.433971 -20.286903 98.313126 
-1.350864 -9.618106 112.951309 
-3.797742 49.567101 36.909359 
-12.794286 -52.209198 35.836922 
53.853523 12.040985 54.183678 
-16.048098 43.438347 28.661774 
44.721821 11.782137 32.497005 
24.538971 -32.953472 95.476639 
-31.109362 24.235567 94.222595 
-2.717980 -38.875919 23.171085 
19.437305 -41.593346 91.958603 
-31.468948 -31.047565 30.468712 
51.542988 -3.711163 46.964905 
-11.060780 44.101326 84.805290 
-5.145362 35.257210 101.417870 
-39.945591 -36.083469 44.389740 
-11.289216 39.156975 91.595131 
-31.794544 -6.178205 103.494858 
-38.637886 -23.784391 32.225975 
46.206627 -24.181730 47.197323 
-34.832214 36.022736 43.064705 
37.541565 -10.156372 93.935181 
48.661167 12.857382 43.067703 
-41.502441 -31.288265 71.307793 
-23.528833 27.992661 17.885880 
45.909294 1.247044 88.712563 
-4.535370 -50.450161 39.786495 
43.589005 -11.788666 31.495945 
-37.454353 -33.380981 81.530350 
24.721104 -37.215332 30.314390 
6.758924 44.345848 89.100769 
-17.839233 -21.694578 105.683571 
23.649765 23.725712 100.963974 
-52.213509 -1.154033 50.828941 
-45.437645 31.133331 57.472183 
-2.758388 10.921100 2.933892 
42.357391 22.275980 86.177734 
-7.932079 -42.699650 25.320511 
-28.459625 33.266182 92.663086 
-2.446874 -31.389927 104.331985 
18.345978 51.741852 63.882042 
45.952820 11.536528 83.954903 
27.224155 16.789062 101.055756 
44.313328 4.431990 89.530945 
-22.631456 -39.092545 85.224701 
-47.680920 -22.985481 42.304798 
39.408604 21.539976 28.177193 
22.974140 -49.413834 50.241486 
-32.351719 -16.645102 19.817764 
42.192463 34.123566 38.331604 
-43.804085 32.009205 79.333504 
52.427452 -5.177675 53.119690 
28.258499 -47.593292 56.481834 
-38.441299 26.973373 35.371677 
-31.714495 42.186043 54.958794 
10.675899 33.068882 101.629814 
-24.316833 43.791634 31.175661 
2.295166 -49.562706 39.932541 
-19.370403 51.570084 69.788383 
6.520035 2.290089 113.147644 
-20.133503 43.800827 27.321159 
-11.696466 41.506592 88.492310 
26.796097 -44.810188 54.872513 
-28.185581 2.115670 104.273903 
-27.214554 -13.301706 104.898506 
-10.865708 -25.922699 10.668680 
3.065776 -12.858873 3.831436 
51.628181 19.974285 56.388268 
14.909966 -49.892830 73.695328 
-19.391056 -47.962296 40.687511 
38.650967 -25.773756 83.523926 
-2.366928 12.327070 113.334892 
-0.150215 55.593410 56.893505 
31.722115 -38.097496 75.893486 
-7.490909 43.431297 86.966324 
25.416798 -40.339134 31.670715 
-40.661457 -23.081354 28.840160 
-17.415148 -44.745834 30.836512 
12.691243 7.471748 4.991643 
-50.808483 -2.384308 29.568340 
-11.926699 34.902729 96.130058 
16.596918 52.368343 46.372025 
-22.669899 38.029896 24.282553 
-21.371923 24.058760 13.223995 
11.432701 38.086960 24.504206 
40.393295 26.345192 84.669296 
-14.305012 40.641190 26.004848 
32.407978 -16.444057 97.083862 
-9.951154 24.147392 9.886174 
-47.573303 7.700458 32.937260 
40.065331 15.844595 23.530422 
-52.055695 -1.155144 46.060421 
8.978538 -31.837545 13.028070 
-55.524582 -1.546318 65.405098 
-3.259891 50.920021 40.248634 
-18.063002 -51.690514 43.541122 
14.998059 40.913136 91.659912 
19.938623 32.277504 18.180019 
-1.080722 46.597481 32.819733 
19.138294 -45.415485 84.045662 
15.296013 1.377620 112.116119 
-6.410780 51.796841 62.402817 
-5.595876 12.850600 112.194710 
-45.788651 -18.903986 78.625275 
50.956490 -21.015190 62.488899 
4.259003 -15.780917 108.683899 
42.360191 17.968594 30.591715 
29.856548 9.088793 104.226852 
7.762428 4.404030 1.931593 
42.813679 13.588533 30.345510 
26.279808 -44.906631 64.744034 
-45.279465 -9.890633 30.996685 
34.394917 29.731373 84.712616 
50.456604 13.523371 39.938335 
2.910605 47.643826 84.221825 
-24.851395 26.872433 20.850611 
23.583920 -24.641272 99.212929 
41.889061 31.897064 63.809265 
-33.549828 33.519802 30.021637 
48.805695 10.393312 85.798340 
23.876007 46.536217 51.865578 
16.202181 13.763803 9.791371 
15.764151 40.478485 28.630056 
14.278028 -8.566216 108.853569 
-54.396378 9.588276 62.336460 
55.613895 1.140143 51.117512 
40.680958 -31.076378 72.266266 
49.232361 18.389898 58.079987 
42.495220 -16.595058 30.548784 
16.135349 -45.970032 90.060295 
30.551575 42.379955 41.319000 
40.547935 -17.467459 24.468040 
43.558571 29.633266 65.747879 
-50.337265 -12.587527 50.652260 
3.725489 -48.056313 87.636772 
-43.738697 2.487764 87.529945 
-34.176952 -39.729401 68.546570 
8.634931 7.972802 113.644775 
40.633583 -31.415844 37.165478 
-5.953790 -54.475418 51.387070 
-39.784859 32.960594 86.308655 
18.394741 1.234901 9.234318 
43.079823 -14.640304 85.408836 
2.868354 -51.960350 64.385887 
-30.338383 42.931709 59.796036 
14.224395 51.867863 44.007309 
45.479847 -31.159418 61.548859 
-41.408726 34.700527 44.525719 
-12.770485 43.584991 27.844751 
-14.952518 50.496071 56.999817 
32.231705 2.519009 16.258976 
43.202835 -33.277596 53.202721 
35.168854 -15.276123 98.578094 
8.265055 52.520264 55.193851 
48.690254 -19.909214 75.865601 
23.371109 47.182396 81.947388 
-51.110455 -12.846412 56.190540 
-40.469742 -27.468672 34.255550 
-25.851067 43.305931 73.208984 
-7.588359 53.018883 72.820221 
-8.681414 24.025150 104.539581 
-4.009832 -28.490150 103.215851 
40.478466 -25.582207 86.613831 
-11.920118 34.474113 101.241631 
47.132763 -22.860790 64.548660 
-53.585938 -4.171601 73.170296 
-53.608585 1.518020 52.310921 
-15.035975 51.117188 51.517887 
-21.739746 -49.957474 69.616745 
51.942020 7.917115 51.325592 
-46.870850 21.123419 78.300232 
-34.118519 39.886906 68.319168 
-12.981171 50.634399 67.890434 
39.619724 -19.732244 86.558884 
-26.146618 10.277543 13.989741 
32.639008 0.414977 99.496597 
-46.510841 24.647562 42.643494 
-24.155170 40.227692 88.104164 
41.725254 -30.660419 41.192425 
-6.073648 51.819454 35.876122 
42.918018 0.941038 23.605267 
13.443561 -8.541945 8.248917 
44.493382 -27.279190 68.110458 
-18.984373 -52.139259 67.603996 
-4.006887 30.336769 101.522491 
-35.942650 24.714561 24.452047 
-2.614370 -36.534115 99.757584 
34.093117 23.161842 95.461617 
-18.246361 51.389217 39.714790 
-11.700920 -43.401485 85.684464 
31.590157 -41.620979 54.216820 
27.387794 44.131310 80.550713 
-12.026978 -6.736267 5.832241 
-16.406816 43.848030 88.472488 
15.481035 52.449478 67.418381 
25.916265 46.210930 71.433670 
-37.642666 -29.359802 90.806641 
43.255577 9.225527 30.142035 
27.163670 39.475773 87.616760 
50.191708 -15.815727 76.117767 
-15.699343 -1.095445 8.116539 
-39.490746 11.088962 24.813629 
-22.020340 -23.905193 13.787384 
-40.724041 20.468594 29.150463 
15.368015 42.394264 31.564243 
-10.722128 -38.296776 96.767456 
-36.264782 -7.649824 96.197311 
-7.218941 49.674660 38.170708 
-15.715106 49.676308 48.456356 
35.893616 15.437256 97.627625 
21.019852 32.594181 94.078239 
14.663281 49.051491 37.450027 
-51.533291 2.763542 39.476387 
35.300602 -34.350098 34.075993 
-22.096777 18.816914 14.052144 
52.632942 -1.352937 41.148479 
4.831054 44.524616 92.057915 
14.131918 -11.592302 110.998367 
46.221611 7.517166 29.046829 
10.811387 -54.218697 53.020100 
-48.380806 -1.518010 83.341324 
11.009951 23.828182 104.902161 
-27.174606 45.112144 38.386520 
-21.372528 46.241932 30.818909 
-40.228798 -21.963671 88.184479 
46.139946 2.250254 33.089867 
-25.062103 -15.802319 11.525051 
23.470638 49.859299 51.101166 
-34.987915 3.518107 98.106888 
-35.602978 -37.021225 71.950958 
-23.634855 46.669952 48.023373 
-37.736427 36.496792 54.655518 
35.865398 24.975945 22.766680 
-8.460040 50.901878 46.110748 
44.832119 -31.165731 71.819016 
19.790237 -51.833912 51.518059 
11.027464 -27.218857 14.363501 
-30.393833 35.233391 28.964634 
25.939400 13.341514 11.432568 
39.343998 -33.443134 70.108566 
-38.569469 34.090885 75.309174 
10.106845 33.918324 97.292419 
-19.308119 17.927731 103.934952 
-3.458377 -7.197268 4.551003 
-45.050549 -6.222056 84.988869 
17.105328 45.722260 85.054749 
-29.730616 -9.360850 12.761060 
9.750770 5.335688 4.868937 
7.057888 -25.612616 9.791861 
52.841465 17.412327 58.741848 
15.958117 47.984642 81.457153 
-0.180280 -4.135479 3.076316 
36.508606 40.370308 51.894848 
-23.250340 45.781120 43.833008 
45.301109 -14.849068 32.136326 
19.614872 48.957687 84.187904 
-48.514374 -16.964725 76.173752 
-18.764585 -41.062653 28.300722 
4.930526 1.252476 116.861130 
-52.289726 -18.334789 61.533432 
45.768623 -18.329208 31.056978 
36.638996 -38.911137 60.827076 
50.064728 21.645737 48.336666 
1.996235 -9.923767 111.773521 
24.508852 44.041965 85.214546 
28.691277 -19.195536 15.618100 
-15.027527 -51.114620 53.852699 
-0.184183 -38.560268 19.221085 
-48.214027 -6.660983 33.181854 
23.510559 -13.388214 10.580049 
6.206688 23.009598 11.783813 
3.849547 -34.968044 17.177910 
-19.091627 48.983047 32.637131 
0.438183 -27.664259 13.978674 
34.986168 38.787537 63.293655 
-33.014385 -40.894646 59.261883 
-0.501970 3.114866 114.028625 
30.425430 4.213170 12.046700 
-47.313660 -13.870266 77.333275 
-15.910728 33.587177 99.379318 
-31.176319 35.115643 84.901085 
15.771624 52.868439 59.604328 
-38.786674 11.924458 96.241196 
27.437740 -14.562667 101.397537 
-49.375809 17.244120 62.278351 
27.686281 5.666347 13.769402 
4.398480 49.977119 43.296944 
6.742193 -27.862324 12.262641 
11.759755 41.441341 25.176685 
18.909401 40.882137 31.820694 
8.224810 -30.509912 101.545250 
9.649051 -52.867905 44.484001 
-16.339819 26.387110 102.390526 
36.193897 30.162495 87.853310 
-30.574516 -23.798048 98.302971 
42.466167 30.126541 69.456253 
15.975530 -42.075089 27.154957 
25.900116 -26.819557 97.281082 
34.862755 9.283933 20.486031 
-15.326191 48.961155 30.251091 
0.935500 -29.434614 105.425491 
-16.162296 -51.636139 35.894421 
-11.589979 -40.928379 92.878433 
23.299816 -44.370621 79.326256 
-15.642914 -52.427261 46.917191 
28.981316 23.027332 18.647448 
-20.807791 -46.281086 72.639267 
24.412144 -1.506075 11.659379 
-52.970032 -16.010941 54.926922 
-39.719185 14.887897 93.778725 
-3.380867 7.593716 4.713016 
8.896074 -50.563560 75.273941 
47.406471 -21.360235 51.488430 
25.396585 -19.235416 101.146896 
-20.076054 -37.641083 23.431896 
11.061296 35.979553 21.904148 
-16.684074 -49.311684 31.764669 
2.576847 -26.904747 103.471909 
-18.446123 40.059479 87.397987 
33.896446 -6.279253 18.742201 
-9.118445 0.327028 1.948586 
-28.278982 44.429512 50.484337 
44.069031 -34.008663 66.600143 
36.212360 40.488754 47.128105 
20.428247 -18.821081 14.059443 
-14.231390 -42.345173 91.364166 
7.120743 48.223804 83.763702 
-31.428167 -2.746001 101.303993 
13.276129 -44.806538 88.030380 
-41.239204 28.042555 40.466007 
-21.343210 49.933289 40.371037 
-19.159575 21.153103 14.410625 
36.911263 31.689486 31.854496 
18.194391 1.336310 108.041000 
-32.382324 -43.999374 54.628464 
-46.542755 -29.709255 48.384773 
-53.426605 -15.173804 59.739624 
-51.973099 7.359803 34.531414 
50.392101 -12.905034 39.691319 
36.291500 -11.368952 18.760946 
29.856386 -45.803490 65.587395 
49.316772 -10.056644 41.264549 
-43.354336 -29.642769 67.170372 
45.130875 31.807152 54.284355 
47.045834 -4.659223 29.647541 
-46.361553 14.015088 85.872169 
28.881819 -6.915407 11.671113 
-18.252115 -48.715900 69.475662 
32.194443 40.274231 77.766510 
48.708366 15.937872 41.494991 
24.001846 -44.625050 85.258125 
-46.270546 23.109573 45.768047 
-18.911810 -1.430213 6.677075 
-43.220261 -16.477104 29.360189 
-37.140808 -12.055881 23.444582 
7.841358 -4.112296 115.266777 
35.890457 -41.983295 59.548042 
18.466003 -1.489746 6.564055 
-47.855709 1.375051 80.294609 
-20.451515 -20.913063 13.396906 
14.647480 50.170769 40.855980 
-35.645992 -36.210030 85.344093 
-47.595871 2.371383 26.656406 
33.243717 -40.761055 39.238667 
-21.556412 49.198677 36.998356 
8.608912 -27.372761 102.612877 
-22.143637 0.912639 7.824945 
-25.841564 40.251408 29.427174 
-31.225201 -38.387508 40.811455 
-44.354538 -24.667927 86.523033 
-42.850319 -33.012589 60.146687 
-17.063429 1.518013 6.257463 
-48.847118 -20.652481 63.173710 
-31.477934 -30.165405 90.145668 
13.808042 52.508804 77.931389 
3.772587 -14.833889 112.333923 
-49.095924 -1.293764 77.375771 
-16.640324 48.546963 79.385826 
-49.702499 -15.745998 38.735096 
-33.968018 -22.960678 93.225662 
-52.435986 8.562475 71.994171 
-49.484322 -3.036154 33.470623 
4.528680 -29.904512 103.857742 
-36.344707 -37.526676 55.135674 
16.140079 45.188301 36.853531 
6.810880 28.508724 11.659057 
-29.341715 43.215752 75.030327 
-5.945889 -51.447632 46.128483 
-31.309954 24.540245 23.293800 
28.082869 -7.357230 105.682930 
28.777836 -8.928628 101.903336 
43.533386 -20.561047 33.056290 
27.670185 -31.362400 25.842339 
10.344869 30.099693 100.151016 
46.795792 21.513239 46.379623 
15.721077 46.904629 89.261276 
-16.250053 -24.623676 105.482445 
-42.077671 31.395184 57.828205 
40.697857 -34.955971 35.724510 
3.840695 -52.874649 54.371983 
-24.045086 15.405027 11.370647 
-20.314667 45.436867 34.255089 
-13.041477 -35.629974 98.743698 
24.651051 31.770525 20.416138 
39.622292 26.207180 30.044550 
41.863480 32.253323 74.736115 
13.875998 -47.846832 35.856228 
-33.201767 -36.551811 80.765327 
42.910240 -31.745291 74.724449 
35.500450 -2.922019 15.278075 
44.356224 -30.444637 35.194412 
38.033207 -13.708658 24.300491 
-5.531777 -3.236494 113.114578 
23.210457 -15.314593 106.713135 
4.401343 -1.732744 3.267225 
-36.931412 39.670738 71.646103 
-19.116102 -48.876965 65.799057 
25.653215 48.129898 68.131126 
12.357266 -52.776653 75.786781 
28.789272 43.640976 62.098278 
25.368601 -48.210854 70.721909 
22.969543 41.063229 85.176590 
48.532833 -7.450487 87.103065 
-4.560998 -19.443132 107.534012 
-26.275698 29.726891 93.474335 
40.624565 -9.334926 95.311966 
-44.821407 14.480860 29.290236 
-10.756209 27.853920 105.663162 
34.048717 -41.819744 50.721535 
-47.979637 -11.476444 37.653511 
42.030689 31.428051 58.795517 
-27.996389 -23.541620 16.129557 
-12.558590 49.783993 72.864799 
-22.453949 -49.150154 39.694782 
51.069931 -1.082739 37.169189 
-18.078665 46.782314 28.811447 
18.282179 22.971310 105.381096 
29.050657 0.070730 106.001274 
-17.830931 -33.046875 97.596909 
48.756897 -21.389290 46.986610 
-8.398160 4.679032 2.152913 
1.221350 -8.106098 114.631622 
-31.937635 -21.416227 95.785309 
37.069771 -28.494514 25.325279 
-42.962471 30.391743 54.171204 
-0.941419 -48.244057 86.463692 
-37.387901 6.854172 98.795418 
26.429478 -22.909195 98.318329 
6.621955 -17.526009 6.295158 
-15.429049 -49.555378 42.729134 
17.288078 49.274666 67.053963 
26.078505 12.218765 102.618851 
-13.136925 -35.568356 21.526234 
-23.860069 -1.518010 9.752422 
8.674396 -21.750944 105.697517 
26.567242 -0.936127 103.903763 
-24.108606 -44.828400 72.014290 
-5.454192 46.520298 31.697670 
26.823160 -33.004299 22.669291 
-24.814653 40.764534 33.174950 
-13.290073 39.849876 94.607361 
46.925785 21.946857 49.758823 
27.829342 24.614563 99.355286 
15.330214 48.345284 43.696304 
-23.524998 19.368183 101.422340 
28.434973 -11.482003 12.748184 
44.737076 -31.783463 47.024399 
-15.370684 46.555004 32.554966 
6.819305 -54.337837 67.305191 
6.727060 15.280315 109.246620 
53.968639 1.365671 81.482674 
-33.458122 26.266245 92.660866 
-1.949572 -49.404839 77.009979 
32.400040 21.815815 19.378780 
5.366344 -26.511971 105.537369 
44.247986 29.173635 33.534229 
-37.057430 -26.903860 32.852104 
19.748930 -39.538204 29.672260 
-5.020640 -44.600777 24.867544 
-7.010097 26.958656 105.321045 
16.050167 -44.722416 34.997410 
33.323315 -30.975992 88.092682 
39.999649 -30.163086 82.122734 
-9.959006 -35.176804 20.250532 
10.956889 1.518010 112.974503 
39.806919 21.118927 24.435587 
-22.927820 -26.561615 18.851297 
50.650604 4.213583 87.278732 
-18.273571 31.680752 96.196869 
-8.502214 34.508392 101.993958 
-44.251659 -33.463451 57.087074 
-6.038740 32.796021 103.553459 
7.573209 -43.591461 30.536783 
-49.134094 16.808252 38.812748 
33.853844 27.086891 88.662964 
31.235098 31.310305 27.772285 
21.223679 -47.501446 47.640163 
9.385498 -51.422379 70.754440 
-14.871705 -52.276546 39.181286 
41.987881 -31.673191 61.589775 
44.204033 33.790119 65.519394 
37.868893 -30.282307 31.396454 
1.648559 48.061493 87.417633 
-7.744785 -25.631111 103.972984 
-3.546250 29.893394 105.161179 
-21.946585 45.335983 37.228146 
-10.453388 6.312126 113.700554 
-47.517830 22.396223 56.233463 
-55.311722 1.001754 56.620819 
40.980881 -32.946373 65.480049 
-13.747071 -1.518010 110.718025 
-42.573547 17.808847 85.829437 
-10.953035 9.706611 4.945626 
-8.547475 -23.271629 12.334233 
23.673279 -29.092991 95.188309 
33.315575 43.969166 54.042900 
-43.519077 6.789810 87.153366 
42.828735 1.518010 27.406826 
-47.242722 -26.394001 75.921387 
-29.980968 23.567633 20.280748 
-11.292958 -51.285530 32.960484 
-2.045508 55.169273 53.936821 
-37.786720 -25.113625 27.085529 
6.587573 -31.262474 16.113379 
-43.764175 -32.857563 73.478264 
6.388271 54.730103 53.226307 
-51.072910 -9.036162 75.579071 
17.234432 23.696585 15.126720 
16.412735 -32.579979 19.519533 
21.588482 -30.563118 19.419479 
-22.594946 50.463837 64.672577 
-37.099140 -6.479414 99.401306 
13.236574 -48.954987 81.301910 
-4.549066 -18.084431 110.849251 
-1.233885 -37.534142 95.139099 
-28.069452 8.983710 105.444046 
5.656849 -22.801353 11.012600 
20.116646 49.998940 80.387161 
-29.520378 -35.305725 86.840309 
-48.017456 17.360451 79.881104 
20.458912 -50.816910 46.813984 
29.893806 41.406204 38.152134 
44.192047 32.075623 41.145420 
-29.724758 -33.236855 91.990631 
6.983296 -20.798056 7.734979 
15.857061 52.405506 73.579437 
54.960453 1.311483 65.164047 
-1.478197 -49.979774 41.075863 
16.264551 -50.942875 82.490051 
17.261688 24.215618 11.828596 
25.278366 30.298840 96.282349 
-24.614473 1.316314 105.149979 
-6.414814 2.045581 1.025700 
-25.752033 -20.330082 16.669378 
38.184437 0.176752 17.868744 
5.697153 21.940332 108.656158 
-8.828337 -8.160968 4.113809 
-33.547432 -40.016914 62.687302 
-51.726883 19.932846 56.571915 
-31.478497 -41.499233 39.029152 
25.305834 29.853947 23.282440 
-42.875622 29.984140 62.522018 
14.777492 -46.531109 84.962250 
-45.703461 -28.952957 77.674332 
29.353031 41.380932 75.398468 
-28.181831 35.629631 86.365631 
7.503638 18.527996 110.140678 
54.833427 -1.130470 72.482574 
-51.797081 -8.306803 35.118763 
-34.699356 32.726429 85.750938 
27.490858 4.743051 105.580696 
-3.819713 -52.335442 49.543648 
-52.529709 -3.414982 65.238075 
23.649673 48.858040 71.277618 
7.249420 -44.067719 92.921097 
-3.318136 9.056138 111.752426 
-2.024474 48.332150 86.045723 
49.982002 -1.529324 88.804161 
51.973808 -11.279408 53.297066 
-18.005415 48.053589 37.746937 
45.627644 1.418897 92.314148 
-35.302658 4.141000 101.715950 
22.999956 17.271366 14.562878 
-43.700718 33.619270 55.452400 
-43.139740 22.968491 83.650284 
8.221212 49.970940 44.640896 
0.244339 -48.362656 31.844643 
-10.733969 30.794472 100.572273 
-32.631584 -1.016281 17.599571 
29.358192 35.959099 87.933563 
45.360065 24.458166 44.899124 
-0.655308 3.999551 0.026427 
35.523701 37.360790 44.733837 
-48.927734 -19.452202 59.977329 
-39.719753 -33.767616 85.397614 
-43.078407 21.360666 87.158691 
37.543098 -25.474552 27.265757 
48.513412 -0.183156 85.589508 
-15.596960 53.345940 67.266769 
53.594055 14.253512 56.780209 
-3.332693 -52.212105 74.053162 
-15.740343 -46.107258 77.830307 
-11.742803 -53.090244 41.674694 
-17.910366 40.775928 27.345314 
30.835320 -31.955269 24.059006 
-19.367191 -16.373501 107.465546 
-24.664871 24.608002 15.291806 
-30.872105 2.110003 15.722384 
-0.190662 45.578259 85.381477 
8.209750 31.790371 12.900679 
-23.418083 -18.296497 105.598770 
-35.767601 -0.254639 101.971191 
0.672678 7.667842 4.230083 
-14.580674 -44.705952 88.288940 
51.794910 -7.851057 42.080093 
32.515587 -35.316113 86.060822 
-42.094566 -35.583878 48.670055 
-27.668360 -41.992901 40.867943 
46.685261 7.457267 85.645370 
-30.169338 -42.995354 57.226112 
-6.888443 -44.458817 28.064518 
-35.971546 36.755177 73.400208 
-27.668148 -1.611351 103.644951 
42.575741 -29.757717 44.994057 
-10.042112 -27.882799 105.912231 
27.114552 9.239780 11.408041 
46.896584 29.600351 66.234711 
-36.681149 -31.973413 84.975288 
23.693275 -19.053600 105.426086 
37.689919 -35.517723 45.299412 
-29.584969 -18.262239 18.499479 
-35.619022 27.685806 31.588104 
29.844170 43.886032 55.130249 
12.073537 -41.728424 92.522308 
-36.994160 -36.232712 42.645985 
-2.820751 13.163874 110.132690 
-55.591789 1.198515 67.329048 
-52.236645 -1.898894 68.539177 
-3.124072 28.429295 14.716400 
42.768600 -23.085896 29.666565 
49.055756 -18.614584 39.676575 
-52.587410 18.184891 59.274323 
3.952362 -15.858433 8.380121 
5.561378 -11.669115 111.590263 
-42.301437 -24.340309 89.312744 
43.110783 27.117130 36.899696 
53.499924 6.243352 72.607986 
-9.349140 -4.787090 4.310165 
36.434406 -27.931789 89.781631 
29.380701 -39.618309 38.634529 
47.508713 13.672685 77.880135 
-49.135506 -25.002180 52.732311 
15.581692 9.769444 107.833275 
-8.932966 28.326509 102.538223 
-42.372986 30.364950 85.186844 
-20.244204 35.247810 23.161829 
45.756897 -2.183706 32.799862 
51.586956 -20.013302 56.976192 
-41.016060 17.218903 30.583878 
4.898845 -19.495850 107.523994 
17.074640 47.818375 40.627144 
0.966519 50.158085 75.685028 
-31.610432 -24.451605 24.522915 
36.380249 12.334708 19.485744 
10.304788 -36.223660 98.591782 
-4.285582 12.147318 6.834693 
-12.539046 45.448349 87.959183 
-25.100563 15.247299 105.688721 
-20.056622 13.615948 11.986888 
29.169916 -2.481328 14.341312 
51.055664 -8.087368 45.656090 
32.379639 39.813515 40.180840 
15.785326 50.070496 57.480278 
-23.613476 34.618481 23.494385 
-27.926176 -43.360954 77.725395 
26.219025 -47.557648 52.523834 
37.873062 12.670160 96.882568 
26.484325 -24.136665 101.485550 
19.298645 -47.256924 44.771835 
-20.177345 20.678013 105.829765 
26.213760 1.611157 107.298035 
-37.010288 1.400520 96.356438 
48.914032 -25.102451 62.098804 
-29.014103 -46.333042 58.496391 
-47.438599 23.189901 73.535912 
46.769516 19.832603 39.581203 
41.799938 -29.692678 30.209131 
-28.915445 42.670456 40.860558 
-50.939304 12.662830 55.270599 
38.646095 35.949944 39.055977 
41.297363 -36.438126 67.288139 
14.095544 51.689724 82.416740 
32.913456 -41.286922 74.893959 
-6.709880 -15.629785 8.435775 
32.015293 45.509254 58.926052 
-27.785410 -44.570717 49.698879 
22.576038 -33.303864 21.463863 
25.674599 -41.312874 87.221024 
-2.747857 46.982758 29.666451 
-18.199585 44.315865 85.685730 
-27.291246 47.101814 47.305149 
13.900489 40.509521 94.997093 
17.297951 -24.663130 102.138062 
-10.330072 -46.486652 26.538418 
27.544079 1.151004 10.235597 
-39.620472 -36.938942 50.518345 
33.366714 14.584217 100.171265 
6.957638 5.129321 115.357536 
-45.041512 7.252235 27.955395 
45.381302 -1.518020 90.735077 
-33.013577 -40.408649 42.987415 
14.858295 50.590740 63.546165 
-15.350785 -52.672611 70.976013 
18.017534 -41.652081 88.801910 
17.191263 10.735043 7.580831 
-9.154033 43.967327 25.720161 
-6.689657 -36.586342 99.971039 
-43.509914 -34.301369 52.587475 
1.652177 0.161242 117.084335 
-23.714476 49.047970 45.199924 
52.796997 -0.695915 83.845276 
15.414528 -50.283642 40.560600 
-21.367306 -43.880585 33.361530 
-53.224609 2.199409 34.119541 
21.111429 -1.518020 8.907346 
-6.065017 16.406580 111.358551 
16.520227 -13.455327 109.529305 
-51.802181 -5.890369 32.755177 
39.759697 -37.007442 42.935837 
-27.228699 35.714054 30.657345 
-47.410351 -21.925499 65.987938 
-26.352406 -47.486938 64.486946 
52.492828 -0.545497 57.431339 
53.495552 9.812526 71.225456 
26.758484 38.538105 32.469166 
47.651810 22.633087 37.239510 
46.147133 -13.642236 87.271126 
36.780899 -35.869419 41.682262 
-29.044575 -30.686100 94.174431 
-10.272349 -34.860065 96.802048 
-17.798187 -49.800720 52.201691 
16.988909 -23.533031 11.431333 
34.816166 -32.298618 30.775679 
34.171322 32.559025 26.443985 
-38.094589 1.308381 21.806108 
12.994869 44.042751 27.286251 
52.800346 -8.637594 68.582718 
-43.878342 -33.033573 46.234509 
-12.930235 31.780455 103.154854 
-47.879913 9.421390 29.724728 
42.031528 -32.392719 33.738449 
54.075443 0.344281 43.899124 
-44.735809 -31.822578 69.598175 
-52.606236 -1.429393 54.700760 
2.457482 12.366240 3.719631 
37.183231 -37.112152 35.287907 
9.026436 -23.341652 11.554190 
-41.224140 8.957914 22.167343 
33.540340 -40.552105 57.205757 
4.186205 -52.437653 78.611496 
16.332184 50.006271 50.486153 
-37.660675 -39.328354 70.465149 
19.772060 17.006697 12.931666 
-2.105120 -44.987831 85.809616 
9.264721 44.683983 32.171867 
-54.871616 -1.135415 71.033813 
13.642439 -37.451401 21.143955 
-14.482635 -27.736437 101.442200 
-36.313625 27.816368 27.101515 
-32.152534 0.347080 104.700439 
-13.576200 -29.273993 104.282837 
-32.452297 15.927773 20.264532 
-10.758809 -50.015190 39.021950 
-52.436630 -1.362964 76.364784 
42.532417 29.723509 43.586884 
48.745377 -18.927319 55.075630 
30.518997 -42.699852 40.147827 
45.280968 22.782558 31.401371 
15.013618 45.335663 29.995684 
11.688159 36.702801 94.766266 
-47.761932 -20.916969 80.662842 
-44.482868 33.471542 50.902191 
23.982576 -44.752644 45.036167 
-41.468327 25.543961 85.218697 
49.965515 -10.802292 77.630432 
-6.127047 23.278379 9.834851 
6.664827 6.577185 5.058440 
-39.237545 30.337715 39.077389 
-35.353458 35.859489 84.728546 
-17.949730 50.352577 60.697281 
-3.804894 50.370773 73.370468 
-36.600758 -10.799123 98.657494 
5.584139 51.756828 78.310051 
-17.467720 49.375343 67.917542 
50.847233 18.517845 61.624340 
-37.871986 -29.681837 30.905935 
40.549538 -7.274897 92.291771 
0.478251 27.560909 104.013962 
35.058655 38.067348 49.421661 
13.105820 31.088524 17.667171 
13.621706 -53.668877 50.084141 
43.519901 -7.905951 30.476942 
-18.287647 51.704853 50.741798 
38.745182 -33.156593 29.813293 
-33.127560 29.517591 90.075089 
8.514547 -50.706039 84.110992 
49.377171 -0.479682 33.417091 
4.439729 -45.360516 29.223545 
11.678995 48.651680 82.679565 
3.274627 34.536610 18.939775 
-50.672165 1.518020 76.510475 
53.079834 -5.436652 49.645569 
-9.661307 -5.553720 111.204636 
-19.247454 0.488979 9.760407 
-0.109288 54.614380 62.678383 
-45.292175 -13.194567 29.523275 
35.840267 5.079233 16.113419 
-14.867544 -50.311413 50.233635 
54.812321 -2.609569 46.641777 
-44.388271 1.518020 26.207760 
16.306406 -45.250397 30.824821 
-36.003464 -3.600931 101.201332 
50.720562 13.336774 55.006729 
26.899025 46.033394 64.169098 
10.238783 33.059395 18.304211 
-18.184475 -43.050606 88.376640 
-23.840878 -45.972015 75.181992 
-22.032883 -42.006161 30.608490 
-54.614204 -8.060509 63.585682 
-41.666878 31.272224 68.154068 
-51.478130 -3.893861 41.019852 
-0.466327 -41.290977 22.626364 
-21.963594 -35.090435 25.516773 
-30.731232 39.596367 39.450214 
-14.487831 -43.527626 28.373392 
19.754730 -48.509308 50.973267 
-31.113047 34.607533 32.352039 
29.922600 14.892447 100.459015 
-50.998371 -0.360103 80.091934 
-51.924789 0.285642 42.591053 
4.482465 9.440681 3.234917 
14.003374 -43.349094 32.382694 
12.785876 -7.573640 4.931558 
-14.147747 11.893616 110.847015 
22.183313 -41.890625 31.386734 
34.496006 -36.294365 74.756844 
-5.272974 -4.012857 4.058259 
-11.852151 31.643021 18.221321 
24.989367 -39.935936 84.089958 
-0.797921 -52.490879 61.770226 
27.672544 -7.692920 14.677371 
33.049961 -40.635937 60.747540 
31.913704 -44.016647 62.654362 
-6.909614 -2.213870 1.271810 
18.341099 -51.502968 61.759247 
12.621325 -33.539490 97.466705 
-2.055865 -10.697129 4.705315 
-11.341331 -51.166016 68.293541 
5.135548 15.780272 5.352536 
0.414252 -52.572403 58.192543 
-45.844887 9.834764 85.304703 
-32.097313 43.063663 63.130672 
-15.217174 1.255991 112.222778 
16.254196 -31.498928 15.622572 
21.184532 42.085789 90.499306 
-23.933186 -34.164280 21.975906 
-50.500282 22.245077 54.213268 
-9.357403 -24.417187 107.119629 
31.336559 -19.558613 100.444504 
-5.734368 -13.988605 4.660415 
-45.424316 -28.698555 81.073166 
50.943611 14.536136 64.365097 
17.960897 -51.697124 74.613396 
-26.866707 44.758167 62.377151 
-20.608816 -15.405698 104.329185 
-15.585250 -49.060925 38.445332 
-53.621689 11.080088 51.520298 
-31.900267 4.749595 100.825897 
0.387180 -0.348529 0.011869 
12.112533 49.627399 79.317947 
4.837563 41.926369 94.760201 
-27.428001 6.190031 103.148941 
30.941471 -15.577274 101.910660 
1.451381 47.526581 29.608894 
-53.555603 9.217735 45.103558 
8.464730 -27.849051 105.970459 
11.486023 -53.170296 47.539959 
-3.988585 17.692192 108.588280 
-44.542351 -23.934801 43.568588 
20.319229 46.821983 86.775909 
-30.934002 -38.847542 79.597931 
-21.843231 -38.683052 26.337851 
-1.552918 52.492519 59.607773 
-42.277504 -30.544476 48.139465 
16.976448 -49.788403 54.669228 
38.332005 -34.536175 73.198608 
-5.842879 21.864590 105.864212 
2.804599 38.724072 94.250488 
-46.964127 19.273609 40.469627 
27.900101 36.418839 29.922457 
-29.024841 12.405701 12.801653 
-9.971270 53.554489 44.698082 
-47.597023 -22.021341 53.087761 
23.963629 -28.403479 99.498207 
-24.442532 37.786110 85.834152 
-34.955383 -24.793987 23.528440 
1.966908 -9.897142 2.424087 
-37.400928 -10.905088 94.527557 
-52.709766 -8.018719 41.848579 
-24.771912 -39.551674 88.226700 
-52.466019 0.883339 58.864902 
1.141545 -37.962997 22.389200 
54.774929 -1.384796 68.104340 
-50.770943 -12.804066 60.647697 
29.139587 20.620399 97.626579 
13.719564 46.825703 85.059624 
47.851875 -4.272750 90.208511 
-26.153540 -10.892550 14.268174 
37.418236 -14.993420 20.811792 
-38.944359 29.462631 84.937141 
-27.344769 15.490152 12.330861 
49.875626 -16.634388 59.266960 
-15.807735 -46.476974 84.349297 
-14.162830 -39.019684 91.072533 
-32.652592 18.049519 17.481472 
53.741135 -3.335673 80.963470 
-41.445683 -29.601803 44.237328 
5.698320 36.870644 18.723900 
-17.816269 -23.142904 11.666873 
-40.606903 -22.266384 91.572968 
52.246071 -8.227124 55.020126 
-10.598261 37.895500 94.781830 
29.824989 -36.887703 87.516624 
-38.929798 0.898806 93.605026 
17.501888 -49.024452 47.501770 
47.975685 20.175196 76.701241 
35.283520 -39.541882 73.164009 
11.675922 -45.946255 32.229401 
-6.548196 -25.459188 9.849909 
4.129511 -3.418610 116.565933 
19.609318 46.425598 81.481285 
-43.521080 27.534048 77.278915 
-51.210083 -1.889524 72.276138 
16.815420 -48.558350 86.691887 
21.275576 13.465578 107.144234 
-6.058792 29.156403 11.731971 
37.527264 -34.365047 37.681381 
25.124594 45.810005 55.467072 
8.447199 50.633324 73.558868 
-9.101656 -31.606163 13.973203 
-28.252941 -6.119720 11.330153 
-44.765923 26.995205 50.411034 
43.694382 26.753975 30.310020 
41.951866 -32.357918 57.782352 
-5.178543 -18.567909 9.770574 
-25.417498 -29.338476 19.038485 
-25.790426 -25.111919 19.749203 
-27.204863 -39.767807 29.872971 
28.709366 -19.099745 103.007339 
19.966745 -48.734444 84.394348 
23.620306 -48.877632 73.948196 
-26.277111 47.512791 64.533661 
-40.164738 -27.245834 90.206299 
32.227444 -21.905050 22.456831 
12.474385 53.334908 47.790691 
-30.837673 38.285965 86.007416 
6.400886 18.897751 107.010399 
-44.912903 -30.126020 44.387978 
-34.288101 1.518020 15.751774 
-46.968510 21.760479 82.027275 
19.771770 -15.824850 104.769852 
48.705658 -20.180363 59.258965 
-13.269567 46.690861 84.790810 
51.820824 5.150981 47.966877 
16.009840 -48.048458 43.534401 
25.305527 15.530272 105.419838 
-41.991512 -1.518010 90.686501 
-42.581223 29.577789 74.693832 
28.007771 -38.112389 32.476700 
-42.592571 -1.222870 25.550135 
10.544511 50.597782 47.162205 
-43.293533 -29.910774 57.678947 
-5.771149 -27.853577 14.483209 
-8.374367 21.362253 108.263016 
25.153091 19.530846 16.962204 
5.511023 -51.389130 68.184776 
28.351305 19.355667 18.942417 
11.652203 10.129932 109.493202 
-11.209326 -52.249077 63.741638 
50.621593 11.517529 80.926781 
-2.002058 38.635159 21.387350 
-44.655006 29.460970 82.578384 
2.083152 -3.677505 113.936821 
21.283756 50.052059 45.891354 
25.787230 -20.337772 13.968049 
39.475094 -22.365917 28.466024 
-25.717005 -45.485321 61.475983 
-17.273539 -49.689079 62.360298 
-42.097050 19.935047 32.226379 
-51.032173 -11.796761 39.303795 
9.694244 -8.442299 6.842753 
-15.239416 -10.207903 107.743561 
-15.949005 50.679817 75.334404 
-54.844933 2.433179 64.320435 
40.358276 19.500107 85.659897 
20.473967 -43.771698 89.592751 
-28.034328 47.488388 60.268661 
-7.643669 30.431232 14.472940 
-13.618760 47.038021 79.545502 
-46.273918 27.971508 44.770725 
-45.551094 -31.208929 54.602596 
41.388397 32.302067 67.145348 
-26.314329 -41.784962 37.507011 
-15.823193 13.256535 9.791871 
-38.989456 35.818573 82.113304 
-46.990036 27.933537 48.044224 
8.064414 -7.604430 113.631500 
-27.468716 1.646032 13.788912 
47.363674 -20.450285 72.840988 
-5.939308 17.140381 9.257142 
49.012657 4.423457 83.983871 
7.907642 51.080727 69.631454 
31.033886 32.491547 87.507004 
36.544888 26.946831 85.071533 
-43.623180 -31.810802 81.372375 
29.756081 38.211620 85.434387 
-48.971348 25.396866 52.945633 
8.299958 -46.943985 86.333992 
30.420950 -32.320541 87.141068 
-34.678661 -27.155195 93.601799 
-37.840714 -35.908539 77.024651 
16.837187 49.145664 73.087318 
-23.390434 -17.000584 14.202926 
43.654381 -32.957298 42.965706 
15.497468 -52.617188 57.677189 
26.475040 -47.932339 67.175972 
21.731981 30.849129 22.129925 
-3.148010 38.440628 98.315567 
13.666281 -30.670845 17.609602 
21.386150 24.160677 103.393417 
-35.960140 40.390045 64.465935 
-38.161831 36.858841 42.799633 
-43.052990 -25.690685 81.885551 
-4.517013 -52.285660 63.088570 
-13.574306 11.618118 7.907028 
-52.329006 -0.538742 32.313507 
11.629303 -9.524929 112.493248 
-26.459755 -3.065675 12.045971 
12.370722 -31.849728 13.825971 
18.948320 44.516094 89.914368 
-47.366180 28.776312 52.049217 
52.051888 0.720913 70.690544 
22.074272 38.896713 92.497185 
-15.203991 51.572193 45.364281 
16.901834 -44.521080 86.820488 
7.819130 35.495537 16.013166 
-36.902885 -41.197678 56.565758 
22.991489 47.829063 42.749512 
27.540194 32.685471 24.875732 
8.108150 30.976805 102.815536 
8.471163 21.651009 9.731194 
45.648548 -10.045417 86.613876 
-19.674576 -15.021749 12.221251 
-26.574835 -46.679119 46.089569 
-13.529400 -49.811131 70.818428 
-46.045113 1.323786 83.685883 
3.495972 49.132786 79.361984 
27.579416 19.038401 103.738724 
14.985459 -52.862568 46.650993 
-21.214941 17.177193 11.199898 
-4.117253 -12.072098 113.463806 
43.014984 -27.438259 37.301140 
35.641178 28.637852 27.305120 
-46.384926 -13.942808 86.166313 
9.770474 8.885117 4.037104 
45.598194 -6.018924 87.950905 
-10.200536 -28.249924 102.411224 
-50.269623 -5.488677 36.803535 
42.513748 -34.777100 69.970238 
-41.424713 24.790447 90.039742 
35.816128 1.569801 15.206602 
18.148603 44.335835 30.775375 
-38.723312 26.139513 88.138809 
-18.367020 11.585936 108.112900 
20.279648 -18.310654 10.474655 
22.500303 -1.101678 109.116707 
-31.531521 -24.872107 95.031631 
-37.770626 30.264496 32.077141 
-19.974779 -12.519197 9.422041 
-36.765556 -13.012342 19.277473 
53.086067 7.984834 75.492668 
-5.841493 4.926510 4.403391 
-15.364625 52.031376 41.875271 
39.239891 11.037698 92.348618 
-15.545521 50.790710 33.874840 
9.915228 46.752853 86.101799 
52.173889 1.005248 67.020836 
-51.836060 9.628550 38.071075 
-49.452023 19.963583 59.536087 
21.988556 1.189319 10.902514 
17.894184 48.635773 46.802444 
21.497105 -42.120537 85.700706 
-3.487143 45.627174 87.850632 
-19.531811 13.048203 8.424950 
46.155834 1.597224 27.737619 
-52.951229 1.518020 48.806767 
51.379852 -16.243340 62.745644 
-54.515846 -1.317927 40.838390 
-13.808277 -37.957527 95.536369 
35.954071 -1.518020 99.695770 
-8.305895 53.912441 65.510361 
49.408340 23.379774 64.483917 
0.016704 -29.394699 101.924400 
-21.198418 -20.970921 103.619957 
-0.790177 40.197895 95.088142 
-18.078800 24.561268 14.734066 
-53.490242 5.268523 73.179535 
10.244112 -27.224390 11.045914 
-47.645515 16.462330 42.545338 
-15.743976 43.683411 25.336185 
-2.149110 -54.449188 52.227020 
-32.776814 -36.466854 87.227974 
49.502354 21.425739 59.745136 
-26.307716 -31.888485 91.890091 
-15.082164 -12.332411 6.686846 
-38.832657 29.938839 89.851440 
33.452530 -25.717367 21.534311 
-39.340309 22.051781 31.909637 
44.786335 6.811188 32.104645 
-30.121563 -46.056709 52.563988 
-50.609631 -12.914209 77.091751 
8.552822 31.049467 16.208044 
22.751728 1.374182 105.974808 
36.374897 -36.502174 71.164017 
23.183180 17.062342 10.939897 
21.136276 -24.207537 103.341385 
-52.874905 16.062513 54.529831 
17.999407 51.855247 70.759880 
-7.896162 50.178631 74.615845 
-43.132557 -30.205097 52.015877 
53.560650 -13.398079 62.248272 
8.566605 -50.003273 79.259644 
-18.325109 -24.188263 102.906166 
-32.401165 -44.342300 62.840439 
-41.010185 19.635685 90.945320 
-0.010532 -41.171856 94.990829 
-20.864616 40.819328 25.390648 
24.632694 -46.289013 41.558750 
54.031132 1.518010 75.045006 
14.746410 -26.771248 104.111084 
9.851498 53.449047 71.867950 
-53.435577 8.852402 48.534798 
-29.563648 30.846657 90.640060 
13.948010 50.136326 47.624954 
8.835914 -46.907043 30.746408 
-11.082201 -48.774193 28.960667 
-4.870628 -32.759445 100.113243 
-7.382181 -33.631618 102.921242 
-39.790565 -30.744152 41.032040 
21.102137 -31.730663 95.318695 
-50.938160 12.863203 39.688141 
-33.288631 40.654976 59.880219 
-53.834251 12.722836 61.317657 
4.709101 31.029938 12.440306 
-43.662949 -22.467873 83.519226 
15.086614 44.424919 91.637756 
30.883667 32.586128 24.611794 
3.079427 -32.046795 13.408895 
-7.480677 -52.122078 61.424435 
42.050438 23.979044 32.221142 
-10.033552 -9.294689 112.588165 
10.726760 -24.557220 106.776718 
-1.209026 36.854195 95.819992 
23.009308 -47.202919 82.575928 
-5.055698 -4.910129 115.968262 
-34.351952 -14.457295 21.565151 
17.096519 31.645676 16.133852 
-50.142136 0.833202 34.797184 
51.643223 -2.945554 86.171738 
9.150667 -53.506378 73.378899 
-39.182236 -20.622723 30.586716 
37.497631 28.164043 81.875519 
46.549385 -21.685986 34.962627 
28.338932 -21.311886 19.855785 
-36.937164 -18.154160 92.545700 
-39.726013 -32.623367 45.822273 
-48.037678 -14.182811 41.287788 
-6.335082 -15.715174 108.651321 
-9.204334 -27.632042 14.827461 
27.716911 -15.791502 104.571053 
18.165903 40.045063 90.192383 
24.551739 44.629169 44.925034 
14.949473 50.000652 70.078445 
8.066234 25.454517 9.860582 
54.421230 -1.518020 63.432938 
41.279743 29.686813 29.366665 
2.633793 11.138539 114.094025 
28.105818 -40.682560 78.766327 
37.466354 12.385922 23.556213 
-48.107323 5.894602 27.693129 
39.294659 22.869062 88.159706 
37.628891 31.808601 27.990904 
-42.138298 27.478685 88.206207 
-47.227684 22.679646 67.091141 
46.662807 -29.415968 64.996490 
8.328304 52.029327 51.578140 
-16.124731 -31.650578 101.548691 
43.362183 -2.460182 28.818575 
-8.024033 51.228661 42.790440 
-25.974663 -44.953331 38.946209 
37.464161 -14.235766 96.118294 
-34.752445 -23.514309 26.868547 
-7.786139 6.917835 111.372536 
26.423487 -11.262259 102.535187 
28.840673 13.145399 104.299149 
-18.179409 -11.552328 109.244064 
38.683319 37.309029 72.499290 
-31.958469 39.265266 80.235748 
-14.702682 -53.479374 67.210953 
7.435168 -45.870720 89.666016 
0.884212 52.333679 41.790981 
42.927948 33.098160 44.675419 
-51.685829 -20.197975 57.738449 
-27.621920 12.718440 104.664627 
19.760788 43.050114 86.575653 
4.884884 -35.805744 20.245985 
19.672953 -15.024310 108.105949 
-10.271706 52.414536 39.180103 
1.194166 -45.375149 86.086288 
22.175207 -34.453651 91.943596 
43.001865 -29.882605 55.663834 
55.077923 1.416526 59.635593 
-43.380276 1.385680 22.896893 
-26.104225 22.465300 18.283163 
-50.384861 -20.664173 67.824829 
-29.447763 18.453968 18.434813 
29.280378 -40.598610 75.353584 
-35.051483 39.270706 57.088921 
25.963545 15.741362 14.681586 
-11.903513 -41.209679 25.059486 
20.209421 21.167261 102.327164 
33.739750 26.469046 25.167747 
38.002037 38.817352 65.100311 
-8.041272 7.589261 4.179005 
41.218300 35.179947 72.033539 
