3
0.67556054680568378 0.47159728696756065 0.34664175798815167 
0.38040109911948666 0.48240737865195554 0.40253497099608859 
0.28444520536198087 0.5587369089721772 0.5079664400603715 
0.49440421673334872 0.22244423743278086 0.34383292230247819 
0.4540901411425371 0.96088167364383625 0.31123191613072793 
0.53141962848822044 0.28587277943971806 0.32934325948801274 
0.32749885721958849 0.49213754484281325 0.63709318981622987 
0.4059858973634296 0.51185059517784526 0.32778619778790913 
0.58266155628521421 0.34797398108974875 0.30353419197394893 
0.6861286295859601 0.59585955310772332 0.43357565202776771 
0.58632456191023186 0.5362961442651879 0.34722221399464864 
0.5295122258659436 0.52711262555220639 0.23898216819155921 
0.61337983427861653 0.28025777557582288 0.58252987825613045 
0.73007054368892121 0.62322204642410062 0.52371480812312066 
0.50112196534003284 0.98259652160220778 0.43554701452619204 
0.37185719335684941 0.23327641409243471 0.51457494501414036 
0.45660497990652127 0.56350721751428634 0.28229659728031653 
0.32737754593322793 0.23701372327941023 0.55154997879384782 
0.44674681237736935 0.62100368408673767 0.72261454288526372 
0.3833192884218134 0.1922250174492055 0.55513359769443638 
0.45546942340318863 0.30447212413033087 0.75025457048758071 
0.36920916012836175 0.5103230179484054 0.47458156270283985 
0.4867120794439056 0.3424626836724759 0.76762468375892157 
0.50064849695621261 0.54800684251133547 0.2601027011652236 
0.51402931026681942 0.26294972087212665 0.40176758018214359 
0.61532825692239912 0.18562583812986583 0.59823425372922956 
0.60440595965859667 0.50919524049273468 0.51315830346029456 
0.50574821074365939 0.50624314333970122 0.36131182873013007 
0.57001920623101365 0.43739350965285628 0.2940835855301413 
0.49184639278944359 0.68396408563032352 0.71310697167793469 
0.44997244255516494 0.35315142505111941 0.73197740890776863 
0.63530151693380377 0.48746488055286502 0.38725520808216446 
0.54189552263662966 0.3910301053578536 0.25362128591488847 
0.53718895049597459 0.27140721641996979 0.28111972988365497 
0.65870117253092342 0.54293811012027671 0.41678171681879234 
0.39153016723019241 0.21827619318947389 0.54361036279112296 
0.54388301787958948 0.20957085356496136 0.37537628305290482 
0.48179943525816638 0.30894154350742786 0.70167840491142042 
0.34550793075328018 0.5277960750146371 0.60100700711995692 
0.37117939815888423 0.532928923359407 0.6506025862087772 
0.41454206585646686 0.5569607569392927 0.6301426479761183 
0.47585173433122707 0.59093136146831238 0.68912425641677877 
0.54450282671543482 0.56012430017170478 0.28436991744720674 
0.63060001731396786 0.50530191404478675 0.3640401993372982 
0.59303786585356877 0.58776879017345585 0.27990612395683656 
0.5639245121640557 0.48973347503520742 0.25104479651325562 
0.50409990751872269 0.42439427760767784 0.26410406166496836 
0.55470640098741764 0.57676343836247812 0.23977521248142342 
0.69427825504503438 0.47567326318439057 0.36892561153539472 
0.70190739020701609 0.59752133930583051 0.50944355812292108 
0.64925446447899016 0.60766784239777127 0.61689986398727126 
0.71763574486944226 0.6946527205924462 0.5165343604845094 
0.42861935401163592 0.71161187809143311 0.69987429725855255 
0.68184040916584654 0.51040786029312812 0.39225967198916578 
0.74558853772047973 0.47780313309037131 0.490935142802014 
0.71956883643981184 0.45189576863615322 0.52724422554250827 
0.75276689604806823 0.47909344759251504 0.52675307073295063 
0.35093099823325519 0.54736052177297079 0.64256223987479166 
0.62676464530318365 0.25373272352173837 0.56829561154408537 
0.71730605939393344 0.29157297682285421 0.58433888461616701 
0.72486397707305716 0.46401744748517626 0.55128321740701847 
0.37662064158059183 0.10733288043644534 0.58924477844727763 
0.40843492815102378 0.13418036035932812 0.55855538899202328 
0.4244255002148461 0.06496058518302833 0.60419257857215025 
0.60172085446152057 0.21385532457632961 0.59082629466383407 
0.67250766611312929 0.29339291570678216 0.53036031410113071 
0.75910507820878226 0.35215961598392453 0.53263861731737683 
0.6157850285541242 0.17955319711321061 0.51492064262879456 
0.59337395050918795 0.16012956424226127 0.54993390558580846 
0.63311872609208752 0.17387189220971294 0.5588551359530467 
0.58638580461788459 0.051730290946492063 0.61335529994977322 
0.31446827486741702 0.23626808045507536 0.52166818076683497 
0.54406025459478602 0.049665427345778779 0.5636378703975542 
0.71593049816428844 0.33571346770062616 0.55784648469784526 
0.47148630872535835 0.049402592728562622 0.58163357446903075 
0.63122735334504276 0.14059919205385002 0.54981017154999368 
0.71842076535364696 0.49523410951710789 0.49846965948823974 
0.74613296818750829 0.37446022303874038 0.49863763087170221 
0.24534388081860481 0.32670361365496348 0.53327853178119633 
0.3070610997370572 0.29813404838613755 0.52896416836916837 
0.29159884313181483 0.33598772435772883 0.50877676994041188 
0.24042183295965475 0.40403648149878724 0.51060951427899537 
0.24329060242977646 0.49251150313814335 0.47874980913753612 
0.57004695965960761 0.076609526375006509 0.60328934706955417 
0.50460628343795522 0.037442262608198329 0.61125782677990537 
0.44764850438763298 0.50765943726624607 0.74148966244200765 
0.58416562965245267 0.039251591765014249 0.58864195014091591 
0.58628277568977727 0.11551990420810471 0.57171747023880204 
0.47641156326879841 0.57696462588926289 0.64949548548307501 
0.44024717507147598 0.50765827377895323 0.71581926629604509 
0.49186441265361247 0.36015103200170023 0.72674434812547206 
0.2869644462227039 0.52995966476880485 0.46218659913426968 
0.44034146365601795 0.022532105553908222 0.59428525725209524 
0.39778699041362736 0.18188685110908087 0.5036922879042921 
0.66064962000522753 0.52911867983637317 0.6622602819331902 
0.62252950899080373 0.53707239248087113 0.63407148206980057 
0.72581080742417692 0.3697272631481735 0.51478342561980928 
0.74801831775948235 0.31298174249000432 0.54208223929021027 
0.75574925096514911 0.45099413338136735 0.53986145775061045 
0.50613544627355322 0.51031819728001848 0.74159929628883203 
0.73186066111653669 0.58886698383637692 0.54051795545556969 
0.65455719970459481 0.24970080729168836 0.50903679516148204 
0.6994018309636354 0.29415825977631282 0.51287723969308552 
0.60451146809163592 0.28965571648354482 0.50139989159349041 
0.6127882364624041 0.23520184722053256 0.51532001318926357 
0.64689285486313652 0.27694763294451868 0.50931249908326603 
0.6039773068188532 0.97498006774227397 0.40550561654867706 
0.3647952263251486 0.98681928167323218 0.4724332898332157 
0.35290893372544041 0.90991499572480494 0.38306482701116623 
0.28897296227571589 0.49827494740673844 0.47809869256130605 
0.3298919661255641 0.54692050010160109 0.44840427274391076 
0.30569539977166205 0.62080777481937877 0.3346830453989017 
0.35316599347280087 0.42133863718002029 0.37717771965110347 
0.67071826522341982 0.57943770681053142 0.49833410612419449 
0.7391790174715176 0.56798583837320493 0.51571504550290614 
0.47079554844795674 0.27409512391875712 0.59768568720676374 
0.56322476678509115 0.94642039566265412 0.52959225641032281 
0.60298939614353264 0.91891724098923866 0.39097995302526473 
0.57899308794546822 0.98393868932766271 0.44513363901951863 
0.47933935843572539 0.99626092784599851 0.51636724043321247 
0.41775059489938876 0.035414474523290718 0.5711491599045323 
0.69977532812070931 0.25939156744493735 0.53639330432217969 
0.66265451080210158 0.56420479554344627 0.62221226183295397 
0.36147607730897735 0.96118654278672189 0.35212567088743552 
0.39867173736658096 0.97188164787330211 0.37935473917018137 
0.39659824338604033 0.89336183498830823 0.31869351621698205 
0.29070971181820909 0.58263185898150904 0.45800721798429267 
0.27600968482565863 0.55269219874498376 0.43894977500266352 
0.47707378263535299 0.27071239812591275 0.72174630468188528 
0.54774204273570415 0.54385663012967755 0.31539828608744286 
0.56679453025468685 0.037532220040348452 0.53901523357814396 
0.66345288655965196 0.26448436061132241 0.58411423579378907 
0.67210957964534312 0.287392318674629 0.57657596615160067 
0.55866668825739629 0.24555457488790389 0.45646575339890377 
0.50958007100926117 0.24975092592571241 0.46531986331933028 
0.50726186159775932 0.5612922356750637 0.28282394789577558 
0.67736406207325306 0.65552932526268071 0.33230391252930913 
0.43475885652823587 0.028005891147640682 0.53432875642381106 
0.44631926981665837 0.053025152981286294 0.5522535338842528 
0.3776521085378276 0.15981487285451657 0.53665507477418906 
0.36130382798138344 0.28375064956200818 0.53226902209939464 
0.51016976396975333 0.52788570965000792 0.27417876907762218 
0.28003631215463076 0.38998898642219199 0.53313897360875606 
0.29710151726369499 0.4822049495990961 0.33479354476676093 
0.35026400076492192 0.50005015233258887 0.31063568919586587 
0.26358399171313268 0.58169728781357199 0.42616722472968116 
0.38130805874752405 0.41834946096396369 0.35007172916896168 
0.33476596692542615 0.85047584235903573 0.37977410184766924 
0.35452273671437184 0.24654573481432251 0.57433964425276385 
0.33098903886780062 0.27013037779656179 0.56683102225323756 
0.42505136769793556 0.19661205625042488 0.52716246927688537 
0.32482608924447698 0.50643753794524915 0.35212787725663103 
0.30177427732851192 0.24459275044902001 0.5450512708589017 
0.36993183472031604 0.95221412607303546 0.49876312078010832 
0.39743312710461948 0.98674742214403288 0.53238414703868631 
0.3929979490166608 0.98736621647571421 0.47013419992326305 
0.43442327203026387 0.93366481133601265 0.5596382054677056 
0.55679403062912225 0.97394015840773074 0.3883062095653802 
0.53689323672108491 0.95510459032450701 0.30582664149301098 
0.52385450286342916 0.90462288796239898 0.30300524156346231 
0.48464529679860263 1 0.55371694549893857 
0.48591019903560739 0.96354094090969056 0.55591925313054791 
0.45641747754429618 0.011202616115366715 0.575270749789344 
0.46385466568070577 0.53723688404410719 0.73911325028812713 
0.4547528358362174 0.46367737221003147 0.71644258332985555 
0.51523837575542208 0.63283373200804793 0.68703625786446909 
0.3931069372699264 0.45670250355329189 0.37218212378749238 
0.42831392440840799 0.60425467083835982 0.6620212739749548 
0.33217015583085469 0.54048432251420797 0.65952935378230826 
0.33782067798213633 0.51577888654727211 0.66480958546100599 
0.27348067847555424 0.53266568081219501 0.52295696641829814 
0.26949249588828733 0.58343335983755018 0.52015964854737995 
0.50963713154765111 0.96386909044008418 0.32844743102803875 
0.51014200344672467 0.39240420868116527 0.76355316994152567 
0.27740358516903457 0.2713991500477021 0.47856718419917565 
0.26411283215988135 0.27469858008259085 0.51221511255418217 
0.30807422048612731 0.27979997525106448 0.49402933438789742 
0.54111663529123355 0.38202766854368253 0.30261068812416281 
0.55963924302878232 0.33914322959561205 0.26683359575942933 
0.46988245213389335 0.39092688842722634 0.76388185155452271 
0.51050601889180569 0.47088460843411584 0.73014970161783088 
0.40481283258377376 0.96099391114819999 0.53368070819059399 
0.38080360542009845 0.93271614707351991 0.3376052395096234 
0.3515063356051073 0.93526526259881582 0.45596304884963473 
0.75971007386494849 0.39579965834266589 0.52818553997063933 
0.63295892040297885 0.5560245079375461 0.68078767841416965 
0.57748207976829857 0.22694526961095518 0.38340271010598503 
0.48469182919587972 0.23752445872877342 0.39399466920628512 
0.34359767971546634 0.23414232532122753 0.49149523068645234 
0.56351429066569436 0.27326856197209537 0.46646604019142701 
0.25410394336526959 0.61789253325467486 0.43413450193334874 
0.70736439746265412 0.61108226257769216 0.53105991049696644 
0.72621399479052107 0.56684220485595249 0.47587095492847098 
0.68829750824120572 0.59680451762251363 0.46606155099631313 
0.44525680727416511 0.40103507093006957 0.75481743775870636 
0.54827813014751126 0.92567621535603517 0.31754131971703209 
0.60667287630712963 0.94384889719584131 0.42145286999414688 
0.66648932944697836 0.73899541350116682 0.3442085797149218 
0.51409043236908203 0.014530732497014087 0.54039917688240136 
0.55282286049629503 0.040525617445058892 0.62053196625468277 
0.48353404582859388 0.32495603800509953 0.62147802685963627 
0.31719755001501093 0.52049921124961673 0.64774098566493199 
0.51621840096656002 0.36758359456667744 0.25305124099133158 
0.51147005324710237 0.36540972142939449 0.28684332116525452 
0.52456575186827947 0.99581266953592795 0.51359679273376646 
0.41912876333379051 0.99638148002784488 0.52257701332563633 
0.54582822674444742 0.91877663638767837 0.56178267572032414 
0.68199234357964211 0.55915081248215415 0.64842006495558002 
0.38894971913399018 0.94900001016277757 0.31882737046391374 
0.39435949519053193 0.96468581950023502 0.33815792789865701 
0.42807320314418962 0.91756087729992475 0.30474320780150865 
0.71127306917288458 0.27194360534525208 0.55911010284216711 
0.6096913064247218 0.30021509439242922 0.5563806255031839 
0.31452125255863006 0.4626326812264922 0.34218668710526012 
0.45237976516108636 0.26568011694040505 0.684001262241824 
0.53161742487521291 0.2740217851999201 0.64338950417049001 
0.63704599231569847 0.51802426094480158 0.64271016593297503 
0.51358020771901813 0.033470911567285933 0.55821812311302443 
0.35856315207720701 0.43111416163921024 0.34692322613813931 
0.29608351199632554 0.47082198231169414 0.36417735249637107 
0.3293486885041762 0.44142429077335238 0.39313179084833177 
0.24648780166046308 0.54453442887486003 0.45807822263410936 
0.4703170181849694 0.95305106363046366 0.2877841035107821 
0.53993573470843814 0.21927168426828436 0.33570682908334426 
0.49449298584768464 0.94232552696618566 0.29056596260846257 
0.44106652907247024 0.23985827589664205 0.55601525856829026 
0.37867363619203165 0.12839816195257148 0.51711949172348171 
0.40819004245362944 0.146461387306421 0.53107804032487327 
0.60633230087433765 0.54502478556051248 0.61438506424267803 
0.64062040973446543 0.54578401422732115 0.61161294935107469 
0.51825230090697205 0.3079819396266088 0.75220473836230251 
0.51289983014681773 0.30697925124378289 0.71147525524135502 
0.24331417723632504 0.35651613097979479 0.51015536758811375 
0.25676692811491308 0.33267346695429156 0.46627229827387262 
0.27781997882559545 0.38001741790138349 0.46952725684476826 
0.60860266541814079 0.20520210776364739 0.50957612118273521 
0.63067786454606445 0.87443228692845254 0.41119918418257473 
0.60831176521720332 0.97347164193933955 0.44020303172508823 
0.31760214562664546 0.76653066339721998 0.34853865729983724 
0.57505441741805741 0.5706965615740266 0.28783500962705921 
0.57560100459323849 0.54503679998569754 0.28306556660598503 
0.58326696341859385 0.557883934445082 0.26247288795264423 
0.57670185157474196 0.5560661026082635 0.31572788642973515 
0.6126253411469782 0.23645849862996704 0.58483144767101503 
0.72696938182093318 0.59979956448329463 0.47230956643905297 
0.61640201380495407 0.078175126227286174 0.57187620821548668 
0.61957977783174667 0.11138650208949719 0.60715028032860641 
0.53594554084893031 0.21299552875025873 0.41352513362234761 
0.69719905509933511 0.50224762510694188 0.36251494908244392 
0.58981035919779179 0.37957509763316699 0.27842192919566155 
0.58364236188417051 0.46672738675096215 0.2840016950023414 
0.58991104696244423 0.32129152835992292 0.28866879725547534 
0.31906076495068314 0.48447841086365112 0.30120297491640224 
0.50979306722262441 0.49241288694842689 0.24225240817482491 
0.55409442795471187 0.44032682428998932 0.25076862790599797 
0.6532159648973046 0.58131388327842259 0.603037689734227 
0.51472983603360234 0.25925863547451822 0.28439568088686396 
0.50414805389989681 0.25213015457017357 0.34940872586737137 
0.48963655796260463 0.49090195326282188 0.70871627924283864 
0.51147748466746334 0.84181791129448724 0.27976742775821378 
0.58567361205321755 0.68498636884182451 0.25883707884309565 
0.24609978219553352 0.41070688894263702 0.53647459590232904 
0.27935733928050333 0.4698771561383806 0.52345470486326873 
0.4219978023924314 0.95331166350074559 0.29847533503600948 
0.45765511941591946 0.92801074196737499 0.29456589357961283 
0.44591727431534584 0.87119473100590583 0.28902318909986929 
0.35719396164993356 0.45222333997011788 0.39362631196716025 
0.47206447322944328 0.97212964093310039 0.37430810949046828 
0.65591924603611318 0.5789368751920263 0.65798355095009287 
0.75430040067771009 0.41495271302091075 0.49894798755983777 
0.73286010379548172 0.44155592446221914 0.4967967917831122 
0.67458291951347849 0.47148535452388951 0.40077374565383844 
0.72799664177838463 0.37060188989001019 0.56848915127025057 
0.42170389415117598 0.44576726958779184 0.52449478091702773 
0.59350225690817482 0.18196278993823989 0.53534084847984797 
0.28186606618898302 0.61100818958486258 0.528876200925955 
0.31014928588395674 0.60021793393992284 0.5668168688559867 
0.31871947297998521 0.55891533755240541 0.47586808877684728 
0.74297770416040532 0.48783072281488438 0.56211938823341534 
0.57108892638021735 0.26613623943135406 0.57914731208806713 
0.5027264959027955 0.63057569404455727 0.71798528944131912 
0.47267207609036627 0.62628158879084983 0.72620370963379721 
0.54537634317823902 0.63828982053439076 0.68169905787503271 
0.34378038269260863 0.97222544772667074 0.45475070927941241 
0.33160013573781932 0.88481928780991836 0.45103764177584837 
0.36386077221538426 0.98154662330358988 0.44035184104039315 
0.29117783454547363 0.79430483966550947 0.49434138309871178 
0.3510292667956707 0.93925875182324747 0.39429561867399232 
0.34772612991864477 0.97496692884918701 0.41513277864194892 
0.752590280095909 0.3437289125687718 0.50382711763599675 
0.4928729965116842 0.30997741256140243 0.75870497514792912 
0.49703047714170473 0.011316822325363074 0.61278769196453997 
0.45686773293773819 0.29277944929556965 0.69497162430080128 
0.58363081923889382 0.97943929241668948 0.42037079133967453 
0.60437985923329063 0.94848484069171946 0.4540288363585806 
0.62218779844845773 0.89998193934283144 0.43883776097299321 
0.54653278215014689 0.49642826959838027 0.29140994139234278 
0.66391289325360581 0.50468065439704279 0.34724229479210139 
0.50751058538433291 0.5368912892987564 0.31394400855744903 
0.44835821390015074 0.28321718354382719 0.7241616617351182 
0.68137835927469548 0.2575880841023242 0.55860908322114222 
0.60711687440915552 0.1604804088692991 0.59790236543174258 
0.62917832452260702 0.1154111678072714 0.56461804459182108 
0.31219244406166818 0.57364557619517764 0.4041548822933072 
0.50989264116102695 0.60369115988917277 0.66739408802664624 
0.45346373448240945 0.58535278397944679 0.72966042683347188 
0.47403546681726261 0.50516375702320204 0.7464309575023319 
0.4341794221203375 0.59519856462559129 0.71303460489665327 
0.2605890512688725 0.43072807895495713 0.45030542871642359 
0.73174236851214602 0.62043305741953447 0.49586754498842656 
0.72861427616999064 0.53430935846569938 0.5543448207070516 
0.74611983993607345 0.51803657333624464 0.53438953089877284 
0.39021922211190574 0.26783407245223367 0.48867654083096368 
0.40202152369905669 0.23467460302159421 0.5011175366391637 
0.41081757276579889 0.20447919905534756 0.49837781138923876 
0.36881965437935993 0.24069052048550832 0.48849593071206149 
0.38756260461741637 0.07135040418679478 0.53494340760562065 
0.41006625439369426 0.086845014961542066 0.53274730760438449 
0.38403565251409122 0.075998440146639812 0.56097567313016372 
0.39330933085061226 0.12692592840832112 0.58874140702114564 
0.38034341072362471 0.17249584146407276 0.57588191760370999 
0.42632549979450085 0.22698895004547792 0.49325228450109176 
0.64125143841880805 0.61213612666531425 0.3080778865352648 
0.39476489247328894 0.45382049586799722 0.30921898733932507 
0.36148644227809179 0.44678684627245002 0.31236234335776369 
0.40241856728494019 0.92460627527935535 0.31898348349975486 
0.35086959235360404 0.91320667863698812 0.48241281830977112 
0.45062126053454826 0.40894638013829276 0.72792010879031854 
0.51540325751256744 0.35947591495283893 0.74881053732131131 
0.48390636176228807 0.24862683402887464 0.51787358756677615 
0.333088690029125 0.53950907540484871 0.62047719012427016 
0.25451676497395287 0.61490165437428734 0.51730293961626872 
0.2480854435271202 0.62490594242798825 0.49008762034799513 
0.28526938712579675 0.60307485215685797 0.4036363713434995 
0.61137821756336219 0.55899041086052959 0.64607078546725627 
0.44415416894789694 0.28391811724060612 0.5930117352769152 
0.45877946316518947 0.27342336253751465 0.62388915917699805 
0.62566938873623346 0.20440082328786502 0.53832032305643573 
0.58643173044099384 0.093492365492577278 0.5517713003263458 
0.62177560115002917 0.1157303499721889 0.52881461768543603 
0.55190119410509941 0.26529744667924848 0.43970698175557921 
0.56826531298703853 0.23204536649787638 0.42015908276621161 
0.49856407754621523 0.31125024637641546 0.63758085416390908 
0.70008222627192263 0.61409820254870051 0.44501090175178087 
0.28329980178326775 0.32317360739749468 0.48113146407866891 
0.48320277829414426 0.55422889587024615 0.29034660268716261 
0.48576727100667882 0.57114258868438017 0.26988025463274123 
0.48282285357922122 0.58718062961086148 0.24276758119310055 
0.72687698745045937 0.32425932549697445 0.50810995692738115 
0.28333311724867605 0.42954141414395802 0.47402639835609178 
0.24297726607906189 0.44289674069786139 0.47315293510154788 
0.29663381310807846 0.29062950213935335 0.55867745938289803 
0.29558229018391136 0.26254377377067944 0.56969515196305753 
0.38701419062529691 0.2737736147792541 0.57664533908143345 
0.37415911394625218 0.49877204380536744 0.64936156383901356 
0.51165992515052128 0.29037299575790043 0.30804087841658884 
0.58068533764622943 0.28448173460631371 0.32296109892651803 
0.58714844570778979 0.2563192550957063 0.32921755319934798 
0.5583394822868194 0.27431774728002467 0.33977299369696723 
0.38924314850090247 0.073127258568715769 0.59281241713367705 
0.51292456844065903 0.44907957956890054 0.74450241346461277 
0.49355642469081079 0.42935153869332177 0.72151832502240998 
0.58551877246840733 0.91410821102247064 0.52974953293345672 
0.48620270612600713 0.93248781623952637 0.56942369406044879 
0.55699207177411225 0.99023182537517185 0.48122602225172995 
0.5816300574030222 0.99006308069832571 0.49706801911659282 
0.57852537669541693 0.96168336604961457 0.50802896331348979 
0.36907346487562226 0.75562291327179487 0.65213362552235654 
0.42277530987027595 0.82116989959760889 0.28337331608936384 
0.5740528499559161 0.88974720986081013 0.32855824255102534 
0.66026293074680642 0.53287801724312989 0.62347245691252717 
0.41121808553025657 0.4802675517068562 0.36963451582957274 
0.26262637782125053 0.65948468190053444 0.39746677778206796 
0.25259403837269778 0.4854668110549667 0.44741557458633724 
0.72593762753909152 0.43387697927412333 0.55284674923157962 
0.4537025970047332 0.26147840605717154 0.57651442193047264 
0.39533260332782549 0.20574867365552435 0.51989038991953185 
0.46452776791010886 0.55478277257709396 0.69567147609628655 
0.44798443296568852 0.58717673121898717 0.65442606085254917 
0.46901375988669336 0.50128512314954299 0.59508751721265052 
0.53248537930120277 0.38964176705129194 0.57855197905197886 
0.58328563597075622 0.061758692983779673 0.53770139393049465 
0.52784239812609024 0.27119514957755386 0.6970643619354987 
0.39645352401234696 0.91223478364803023 0.55269601377725031 
0.56196567134289832 0.94890548391467289 0.32369603979608963 
0.53596850553409359 0.96468730223708976 0.33383730719521293 
0.58992478178804697 0.92664373307877557 0.36624337958437714 
0.59691108667354253 0.96256317527600843 0.37472532610145581 
0.54409970674622032 0.96970475960126645 0.53791625598018722 
0.52541138365544759 0.024526333415409995 0.62075879661573474 
0.45882126712173094 0.02015379918595972 0.6119136079469587 
0.40967608886226425 0.48566188317902964 0.39874204144096981 
0.60116511191834343 0.94407100621059226 0.39368539441944317 
0.46757128394884323 0.30366207093324427 0.44746004959754782 
0.50740898243760268 0.27575929029971014 0.42655883043135778 
0.72446972160001566 0.53159124641112498 0.48125462701248939 
0.43841904920989017 0.45013439076355677 0.73794748213457284 
0.70093206151165766 0.30884676895410801 0.5651248142521802 
0.71099475095190912 0.52770460292067589 0.52469491846747507 
0.44053084959065908 0.37599248259509027 0.74665151993031564 
0.72579673561292535 0.32600289279122596 0.58240962404054197 
0.73887369073759301 0.30567881653052237 0.56648664420343975 
0.62029562403029059 0.25960645077793398 0.50129638379103991 
0.24564897698340132 0.33443679224921652 0.49743644730006475 
0.54598403117237859 0.98306844339926069 0.44009067006811703 
0.45674410177122671 0.9880026298360034 0.46757274717600261 
0.36191964265048576 0.93067565995047752 0.36701248015708776 
0.327393256558898 0.46482046655024578 0.31883837393215231 
0.32109869807722902 0.50117933448633256 0.32595337541054381 
0.28764067000338034 0.62095318235323915 0.55706237230128364 
0.2460692548429671 0.54308083950503327 0.50736062499699597 
0.36354495635973771 0.50260564220747372 0.41060772825505654 
0.46001440915162212 0.47418354895300946 0.40793921339355493 
0.50150767201924618 0.26377585005827098 0.63945115643985873 
0.34813103413818924 0.94271579181970167 0.42614972985368099 
0.35748054488734859 0.95196233394344876 0.47631467280032574 
0.33373233261838575 0.443116763948807 0.35630105077623492 
0.39798460589253459 0.55901554998993208 0.30562409892919618 
0.59288947865712927 0.10651221751224671 0.60314649707940748 
0.53569739880600309 0.2993435537296924 0.44618954985155512 
0.33848287251816944 0.56443797187634825 0.57063211750271003 
0.57133379788874228 0.38524958478490634 0.30049932050391132 
0.51365792725128978 0.4028062994252638 0.28503614162215629 
0.36176528194001856 0.976039600283231 0.49567836479239208 
0.38847016017796959 0.99163697039756649 0.49602629360676326 
0.47932527243560441 0.25773541422799162 0.6895206792396249 
0.42230368603948093 0.50092688966875243 0.35316910615603081 
0.3723423746523794 0.12815340395500185 0.54576718445457528 
0.39923244601405661 0.30493154908063835 0.52559130384057395 
0.41028609318933734 0.090824914796282463 0.59390001525835545 
0.74420204041972582 0.52994023311212823 0.50798528287896705 
0.35711911891093762 0.97231956959199706 0.39026605424904937 
0.48596675941635009 0.0046035467597649316 0.5896582101773461 
0.65107670550698227 0.46053469371010786 0.36716146328604315 
0.60105728005793602 0.50669561219677339 0.3848883556790586 
0.59833245666812396 0.12838852771023229 0.53892801105057531 
0.60240557737498213 0.083373246918625354 0.53218149096391609 
0.6751562101409162 0.45854198405763458 0.3752728461948015 
0.47144668630749093 0.0033916576861469094 0.55540943641047991 
0.46357536842774005 0.034413680354533016 0.54434960643534758 
0.446525366692264 0.33930701526259432 0.75663034251061723 
0.62921546743554257 0.15659685145794977 0.52979924718470217 
0.26900023079969726 0.2700693762996893 0.538774306575319 
0.29336308715603499 0.25145233099446962 0.48477374331267498 
0.43460726619452372 0.87463032807344254 0.59838847609821977 
0.50482838181105416 0.57016961534134614 0.7270455352567422 
0.3922267839634489 0.2091693440324266 0.57217751595214683 
0.50698979002654787 0.53862825167429096 0.71307105964942175 
0.48311951800836234 0.55823759556270069 0.73670460811734928 
0.36150861238656729 0.27370081523745526 0.56647442403964809 
0.57832952063631826 0.88121274679077466 0.56519684404781267 
0.30425196253790843 0.58508404679255011 0.52641532952682624 
0.5354796493213827 0.23325005472026167 0.31185826603537781 
0.41064122285494137 0.17469000823184994 0.57034465455539063 
0.43570905673584387 0.22146893711516125 0.51713078606354346 
0.45143807472791558 0.24522364788632051 0.49262593104922447 
0.45258183594499279 0.25820815188503649 0.46451000167198087 
0.6472403722002944 0.5732371957026241 0.55431465871787278 
0.48084178234689329 0.96131400849519533 0.314301997280242 
0.44102476058810236 0.53506972224206195 0.70892179792201526 
0.51022441594755852 0.49565055638192912 0.27574956915054594 
0.48783800525211646 0.520488764694503 0.70200094274395664 
0.53662672718668791 0.48831753228318081 0.24347357676904652 
0.38459001873693416 0.51586540672580428 0.62406825108687181 
0.36697784690043173 0.50977452946472146 0.60347984683044509 
0.32901100760074681 0.5048482568699002 0.61176719655058653 
0.38862981688394937 0.54625296345622976 0.63385124243859625 
0.30922650211929392 0.57132394017170973 0.50138473078651047 
0.55753569347558363 0.46236091471597346 0.29403146271831104 
0.56211892177433298 0.24510262037734837 0.52260377353337062 
0.58666413702772946 0.2236966108980839 0.51042984062547514 
0.58700137098177207 0.40475240928333028 0.28821142969123437 
0.51081929493982525 0.40964374178719409 0.73733536721317283 
0.56397425479303998 0.30428317095620716 0.27652606212422659 
0.46368060017782553 0.43638324086654046 0.75825729858150503 
0.35224530611359539 0.52009721574830414 0.32982563493461403 
0.36104031939286962 0.63389149448754445 0.65266101870442395 
0.63965909964209822 0.28347125298695652 0.57708480383967831 
0.63366452223779823 0.29215440121968939 0.55382183316894051 
0.50594144895634929 0.39439984478795737 0.2577145406274598 
0.62801279757983286 0.52914465965628921 0.67146506976143883 
0.43127111181834743 0.37015567122991933 0.49351779726741174 
0.50490243352057973 0.34407672787218757 0.26955450656849766 
0.53757654784203879 0.4081990027246708 0.29868230097986737 
0.6978967963004935 0.27296383117068646 0.5821831980622687 
0.35171662883884514 0.4825307331355132 0.62710699257104496 
0.39687718237005309 0.48193101573877278 0.51200280450098601 
0.30082175014631829 0.68306166644050192 0.32906978676594567 
0.51003094361852319 0.22268493741369505 0.32065737989791571 
0.57590851641305452 0.22143938524736778 0.35650442338891108 
0.24916838770262745 0.57128856732023492 0.44856350733102524 
0.24854509904655586 0.59149519166706133 0.50088534997990408 
0.28290330092163984 0.61823629054143536 0.38086493503457641 
0.46639199025551015 0.60752668088308615 0.24147386845672969 
0.42482831867058524 0.61596553225650574 0.24812548274302704 
0.70447789900018665 0.7132863278555015 0.40740259035192705 
0.65427383379332171 0.68520855589535723 0.30836700248587218 
0.67808970568613436 0.59375231090125691 0.40134805078543995 
0.70421465645297454 0.64083975901411327 0.39621563520118741 
0.48180153166362383 0.29001727725421533 0.74467691527522784 
0.27467364669179506 0.45197982704584022 0.45384259325851695 
0.75825245485620529 0.43264939731092189 0.52009610369566306 
0.54981478825338259 0.014117747716332452 0.57946086481904058 
0.44573898407659451 0.31921795279338305 0.73138586429981656 
0.53940674527856058 0.87891589872219122 0.30138569208241395 
0.26719011416062821 0.30542691088998031 0.46987620016330323 
0.4129216473071663 0.28721776010853628 0.48449307328659247 
0.7110644395840866 0.63652181291255572 0.53879764726552193 
0.67977939074874716 0.72708673086550701 0.58643638616377358 
0.66766675020954747 0.81594966555327186 0.49454289342227603 
0.33045788563533585 0.8651124238219553 0.49834730886719381 
0.60436690834272355 0.9107621989292618 0.5020021878172487 
0.60444297132448999 0.77182174601380993 0.29382459254932181 
0.51455804074982991 0.5048518289177778 0.59640453161983342 
0.45711550252284305 0.35093603882911811 0.59062494396505083 
0.56679395205825778 0.32614919777107754 0.31423099617764272 
0.57911744274432031 0.21843635360031832 0.53994577510716457 
0.55258750617193653 0.35600084799778109 0.30878163672262443 
0.40621585282297223 0.11564169082159104 0.5400838682788367 
0.24235887613015894 0.38423309417934792 0.48867051056145833 
0.47484118886195742 0.39833373721358944 0.72337344875529297 
0.46111591946277108 0.43804378199135563 0.720080244086864 
0.55822949726547677 0.41229695750023898 0.25480395655914456 
0.52051902600576783 0.2965176772118403 0.6645349102322553 
0.45777230883571229 0.38788715726941092 0.46139221044902751 
0.72441822309844017 0.46688213410812124 0.49986073979381762 
0.73116960287287713 0.39433369982591848 0.50557956716250796 
0.57940446228947018 0.2862968031608118 0.28819697832772573 
0.53228976800010175 0.34625774510522578 0.25774511054663451 
0.38696748086715205 0.93617674847619958 0.5259646413728668 
0.46974092525582045 0.32384222949137698 0.76112915413072657 
0.57455838873185261 0.58869643362589652 0.25156352739053939 
0.50867836835734559 0.59302761439540963 0.23330547467062446 
0.26782129182809983 0.31270342781624616 0.56079230682337589 
0.28821048435780905 0.32967655070996404 0.53470217199488568 
0.57597867682514048 0.49209846869641871 0.28685351232071854 
0.26007128168749216 0.34643609209945475 0.55428286146149297 
0.3673871886888887 0.90656500720093991 0.35477521877773421 
0.48066154468581346 0.99132748277768323 0.48590413861475451 
0.45768864416715177 0.37963745416706962 0.72814337774514493 
0.5278907963596966 0.97449363073179995 0.39023574327674171 
0.42036594761437485 0.97454113861384983 0.39224655437938299 
0.34079816256978729 0.53795232585987252 0.47053100584558361 
0.70892428629499049 0.5770461657746272 0.52963381915608398 
0.41418344572898447 0.62441525939833897 0.67208393503746744 
0.47360957725983949 0.23400738917300223 0.42043723072075395 
0.48856407807829783 0.22980042840808168 0.36966854783288694 
0.28880246527349585 0.52742498641814806 0.49847983290761699 
0.53703054950493878 0.25171354453335398 0.47484821057871379 
0.68380167273645809 0.60975400349149056 0.37976193489213789 
0.58599451461855279 0.036303662592374164 0.5620668220194156 
0.75507042707415062 0.4021395715454496 0.55998071058673937 
0.50854111232896937 0.25068146745473296 0.53580882222398363 
0.54385573268368648 0.27124673321234605 0.5840544793702086 
0.47710932220604357 0.30269640485796379 0.64885448202352713 
0.49728735243376265 0.91379686466069276 0.29614214217839552 
0.49243094583198682 0.96777566929207448 0.3501483951776786 
0.33170114984646848 0.74837524586428583 0.62546273317389423 
0.28281196007472076 0.69150647004464505 0.590396719547578 
0.24113543022239475 0.46248237498546302 0.50796758581157753 
0.24833668583801671 0.44115214116335921 0.53410838554556461 
0.34928270564997055 0.49053973980415777 0.65389900820334801 
0.2898018228192244 0.24831382047493938 0.51045617871434401 
0.25017199836196591 0.30664150294322373 0.50123589309346672 
0.66443351834495779 0.56230466826396674 0.67572609011886597 
0.39924215474796021 0.43673636280712086 0.34950173390644779 
0.47897206890902477 0.038076189369120883 0.61028578635503605 
0.5500421648859074 0.52381124809498902 0.28888492566176399 
0.37945348483333124 0.97495733717345612 0.5156036132168822 
0.44903402620361388 0.96653892486644233 0.55241811058070556 
0.42521699437072569 0.97811900747510427 0.54571770786689267 
0.51222645478167828 0.9002861132311154 0.5849784691887725 
0.62052788163389727 0.52944238115620235 0.51923500958803981 
0.52091086937100728 0.20912317699853722 0.36378595253330115 
0.24353993633773535 0.51719412695026223 0.48717215530859787 
0.51096193209693064 0.32687205327111696 0.72942286968713521 
0.71323365522498106 0.26812131901929442 0.51251244386018624 
0.70762000639811595 0.3213861432884616 0.53034812231507789 
0.73292099532861621 0.28762825474263404 0.54262697127071413 
0.37738357708953763 0.50366373103096695 0.318352252624023 
0.5305089726596981 0.2641001189328771 0.35751615362877764 
0.36559070045890174 0.84995645169932366 0.3336821554552753 
0.36426288122765221 0.78137774737970145 0.30355968582508708 
0.3456031380671174 0.91726236831775854 0.43715362730554275 
0.54366782593868279 0.54988623985258611 0.23930845188562355 
0.50646152068179362 0.56179823558925657 0.23593838965874048 
0.28845841002047756 0.38228931484308448 0.50399496131963439 
0.60920800160717326 0.64381494500491754 0.65481527218251045 
0.65028809878603044 0.67316062369516716 0.63309271966804148 
0.51679314595311365 0.4432315660913192 0.28456195670043016 
0.73849523811787265 0.50878117735797679 0.48665529026764337 
0.51053517347125532 0.4248550575950153 0.75830855587230039 
0.48553968508833006 0.41967024961041344 0.76315261106324228 
0.45818163643529985 0.36594643669867366 0.76383979574554906 
0.68718607991032921 0.77911142666368427 0.45679036990081073 
0.43795947882367109 0.019530155808152483 0.55950388653530037 
0.39645687967996579 0.47950897572804102 0.32500931898339658 
0.43601139671275468 0.68709837496120008 0.70607670612774531 
0.50628707562665631 0.77034772467201229 0.67989072548629381 
0.48538478874804208 0.60965016225060864 0.67389209006533846 
0.4485375612096742 0.90109110454903485 0.29692962443144533 
0.50313409600753056 0.45798940917955644 0.2552807557800621 
0.54031899735489319 0.4400755713374408 0.29522648832061837 
0.51588221344163743 0.31436153200273775 0.26393259272519282 
0.67094945156738506 0.57440948718889628 0.45425405273573549 
0.66319133603511871 0.51863978474208083 0.40834186513007831 
0.65200109970832476 0.49321449776820608 0.40598930801291749 
0.66973381663223885 0.52964581407157352 0.38082335809994577 
0.65593069290652128 0.55988893165847675 0.4748314109573154 
0.63139080202637632 0.14305089389611325 0.59205153546358047 
0.61765829630378355 0.8638367947996658 0.36588714673417544 
0.75442364519752969 0.32132243526474646 0.51775671384932798 
0.49623723066045128 0 0.56522809857993717 
0.55008683499407252 0.2930167936088649 0.59953572068274075 
0.54380392202698358 0.34097924446859779 0.58998127654526855 
0.39330327575058543 0.2970456805152929 0.55739999644923544 
0.58603177813687835 0.30008757547569553 0.5787694837786016 
0.55679830502603633 0.52831839567588523 0.34426003210267175 
0.42429540247109448 0.3417621827362145 0.50481680901442993 
0.45007487555075648 0.5859290400805941 0.6940784065928014 
0.43512966489455374 0.61559330500324538 0.69755398789437584 
0.419891287365523 0.58544704418624993 0.64625559903872531 
0.50222547982898791 0.52568680379984301 0.24383534327832374 
0.48619253980106458 0.65271798169433648 0.72005821586708274 
0.68036433398519958 0.63970375910861121 0.57712074424593007 
0.58287671984838196 0.2748855290789084 0.4873772341328223 
0.57767566206107201 0.30678472184397554 0.4847203718803354 
0.56256998238611489 0.34750676290290999 0.4870471123495787 
0.38719915317989501 0.4945302493660102 0.43421106152554501 
0.39890220717264024 0.053991900957860384 0.55476708146111942 
0.32869699373151712 0.60127369578883039 0.32064635159915567 
0.37618891685061795 0.65538356300708467 0.26151975064906541 
0.39663818860068711 0.60576314275511978 0.6529456828972493 
0.3598191366097786 0.56259925047651982 0.62274134703770012 
0.35640693698792258 0.59110678200822264 0.62220151731158235 
0.5959298447668514 0.97315444976335885 0.4836392651634186 
0.57088971465349991 0.38956133744496024 0.26173678359577979 
0.45511505638931621 0.46320311989117557 0.75197386417346479 
0.59568638505083427 0.49965984845968198 0.43829368877491759 
0.60151376436505533 0.50014863727526315 0.48818757465451479 
0.62681764782491811 0.50160373775968359 0.41101017780019067 
0.33197041556875118 0.27339857458263039 0.50369659422616242 
0.56571155770144077 0.067706787651845457 0.56160077441430434 
0.57578080949380095 0.091801353770673388 0.57937659002909481 
0.50928473678662867 0.28525427952707716 0.74256829320120987 
0.62226783786088036 0.2288967889754896 0.55571877504723433 
0.49964378311227636 0.20986497463925813 0.40330309608402637 
0.56519312833763224 0.96905466107641758 0.36035469371259093 
0.51736630888072643 0.33367279966949864 0.75337459645746851 
0.49461793303183521 0.56005445191474623 0.69789579421159043 
0.38642175921300587 0.15889104620795103 0.5103728865036059 
0.37276700140042368 0.14486509692957655 0.57625748633571972 
0.43438224491432342 0.49167346949055191 0.38765052417319551 
0.34541588755732455 0.47519852134953955 0.39441870002181362 
0.32912057405044137 0.49650228583573225 0.37771088415580922 
0.33775161011299609 0.52564231105254577 0.3864388124604452 
0.37924035027849118 0.42639473083563945 0.37796547858710716 
0.33026319306352997 0.55223104275260659 0.38637216379354178 
0.48775770689282683 0.26073541655141907 0.41479897484708966 
0.5751045786186898 0.91207194154086468 0.34143851511495033 
0.43837119724775664 0.042530018725937757 0.61147717251233602 
0.24964353746747442 0.56859762695060811 0.51174701111022169 
0.66555153740568196 0.79739802029444629 0.53689061710106745 
0.61981577065522941 0.83849121734699961 0.56639607664990432 
0.5287380492251964 0.98775053619294151 0.46505966428460971 
0.56481119589768569 0.02777964607745248 0.60104877915154209 
0.53069974910354278 0.04924367739101021 0.60329129803909998 
0.49940942200877747 0.043973133162912015 0.58421822601779994 
0.4838389930102614 0.63326841866451411 0.23122832705620705 
0.45194155966500293 0.68076498154391674 0.23791621873440499 
0.55743036595062956 0.62915934336253465 0.239831801239905 
0.74913483634726497 0.50110125668510797 0.51411322501420353 
0.41656046800425023 0.3349783778479255 0.52837132902688144 
0.35449870431678443 0.23502783137869537 0.5466754530058171 
0.58928747452898411 0.32148979297960634 0.52312668657991723 
0.49162030734403644 0.41100988870197608 0.58274612726780917 
0.29058335284155079 0.54813926368245536 0.48165734614614253 
0.27129271933815025 0.52765840750904758 0.43900700935470388 
0.32360819473187497 0.55550995568230777 0.42392857940347617 
0.3003110288858245 0.59572705389782166 0.37851781225440506 
0.46433598405653498 0.67813937027633686 0.71625901483167842 
0.51226477182355867 0.6540160078470123 0.70810746678079717 
0.61276459425872587 0.58656313001351501 0.3071533823701843 
0.27583383152523089 0.74047859375817793 0.41043107683072377 
0.53261016686057239 0.25319497955942594 0.50455400277495266 
0.52034652837295903 0.23164705300817956 0.44936911231754734 
0.58573104150221256 0.57050427756280553 0.63599848661518721 
0.55777659564788706 0.53910905570360357 0.60592324108966045 
0.54861955336525137 0.50195261013387138 0.38021809285526043 
0.51891147321381781 0.36545194041036655 0.595135837407475 
0.4381653983384089 0.34365243456257477 0.48044991237752366 
0.65345414635389598 0.25434603030816993 0.56314365788663567 
0.71695467204264007 0.47726300539799571 0.52664016989894136 
0.74598555292862434 0.45452137990373309 0.56603040110710068 
0.60343472090484973 0.05962893304153688 0.5841338838307244 
0.60841813562406011 0.079895150639945456 0.60816769321067743 
0.46959514171692024 0.27490977785675452 0.43984432291717196 
0.48034174885229342 0.33136095751315087 0.71979567566890723 
0.55346270756298488 0.30202529261749755 0.32361566339801817 
0.27193291048492363 0.42336404153486457 0.53790717510375563 
0.50158499781039145 0.36892727695394339 0.76877167294379301 
0.27413865182293362 0.40777167654421853 0.45965720613747352 
0.2426058795163149 0.41550307088814142 0.47616393379877908 
0.28224106381899838 0.35936381933716943 0.53642909574530251 
0.54934037985696305 0.06274763235213332 0.59196953443995992 
0.53348395291189565 0.94018268133911631 0.55317343021398779 
0.47503549833428882 0.87006454144243295 0.28507400462021515 
0.47460819343714067 0.82844496571197623 0.27466211646177907 
0.50243574823220438 0.71614554466928337 0.2414596724928707 
0.24301385562608985 0.38222885607046742 0.52896584620297782 
0.27423115260992814 0.75560528005431782 0.5074928971849868 
0.28759186383977797 0.75956534739682047 0.55978554268780778 
0.46462931055414403 0.24637242132152182 0.54263161103101587 
0.57976946740819357 0.24677912752748321 0.35598052421593951 
0.49563118148073021 0.2719255819338659 0.60803416176052516 
0.53462661449159254 0.29706630048978377 0.26990105196809994 
0.38471673598254541 0.28529232698043849 0.50940736941145437 
0.72084442998992793 0.39194153802697701 0.5310979863280666 
0.36640766008818065 0.60898847141944001 0.63803892407718654 
0.45584174288410018 0.96853562868565857 0.35361021327591147 
0.43725268512381998 0.96463860958444292 0.33300603809111962 
0.55238001523990987 0.7158951040295094 0.69425569651625829 
0.5227049242098879 0.41052491669227009 0.24703773563521964 
0.60922962544417592 0.66945140492243449 0.6658888086055067 
0.31592531213251385 0.71899066484129215 0.62749538804101423 
0.29956224677412946 0.7424994505803717 0.59265373236525276 
0.29178594465847862 0.7816361337863531 0.53153565264711178 
0.59448355202312619 0.89747048817142239 0.35767836078403648 
0.65801810971518448 0.57236727611821903 0.52143281934804164 
0.48011939507954482 0.45577201877974899 0.71485086531618303 
0.44163458400709033 0.56701519200475647 0.63817563383408982 
0.43694595369182232 0.53089252972519363 0.6132462478465952 
0.37983371460894688 0.51550912066734222 0.56090720119353932 
0.4096900400681257 0.11103890316634013 0.5734076306285405 
0.31348706133846482 0.23708500815939804 0.49470175555156809 
0.55426115781209973 0.97848029511003842 0.41383217366225522 
0.62427309402114206 0.73854850668090899 0.65095132024148816 
0.60988455173184641 0.92332804614674369 0.45269476693034966 
0.58996597207598578 0.19013628462290322 0.57475471125003352 
0.67674683206442565 0.27134426750076879 0.50657034398945211 
0.48497797257834263 0.035201868503836664 0.55917670539524489 
0.61729975066786569 0.7616838733016964 0.6418428606477613 
0.51207762773028653 0.95807545935178884 0.30134460821099585 
0.40829255703522016 0.98391789908673877 0.44815898266373783 
0.39155364271465493 0.9794008902415926 0.42362640259856377 
0.43010041657988546 0.26916725507612566 0.47660548432082928 
0.48233576388075372 0.25138591999112914 0.47832942131423234 
0.39539344874713434 0.10905902025182651 0.51729848076405216 
0.42601073391519167 0.063733326016606306 0.53587745733260639 
0.38240513858419523 0.43289561676204213 0.31889397301699152 
0.63281334614990259 0.56439645879163003 0.34755629447246161 
0.73994733765640985 0.54909304657959301 0.49158285050236489 
0.25216232783159331 0.29949467583071343 0.53412777818285029 
0.49270971100234912 0.30201533557837895 0.43828016323513885 
0.56675743345557694 0.44157173086275786 0.51110461359425297 
0.55353140652152011 0.38798301372402433 0.55772555296374182 
0.45663573782821582 0.32119734973911895 0.60614987990097513 
0.43030493139655029 0.30696858830841056 0.58723097349318776 
0.29556080114116823 0.31024945220765765 0.50007645317567562 
0.35329373231701061 0.85373683829387148 0.56337427667582385 
0.38110646683796062 0.88550752246856246 0.56036636051047506 
0.72478116728387953 0.67622966196277856 0.48803040809511888 
0.72733971131290798 0.65687254651169036 0.47044632667285929 
0.48665920816921321 0.51635700848474875 0.34379790417273898 
0.50209422923959557 0.43702832007883047 0.43364631614471816 
0.60714071525700575 0.30340480899449462 0.52843121315028674 
0.41753939357800773 0.7668545137001781 0.67053744049786757 
0.31395096287707563 0.44862735546982591 0.37415509317537904 
0.33757846333941111 0.5377710275808032 0.41068400052264697 
0.3263152110905595 0.58740814813208053 0.34189662404761867 
0.42885180671219725 0.85066718635765737 0.61541369342602903 
0.37433083473846002 0.83035458179788324 0.60253438215800748 
0.44763792303825978 0.45504921648796992 0.43559007774489489 
0.63441028921474063 0.29148724057935771 0.52639462087190136 
0.45662661083795864 0.33265901559078292 0.45898564340040299 
0.61656444798212373 0.60962174549236903 0.28723749859951425 
0.58195707537107932 0.21657175879709456 0.56915405233312633 
0.58684426827228864 0.30561624361636108 0.31018196107663226 
0.69933831448965744 0.74558793469352913 0.4307622297900528 
0.41428041246263031 0.31042330487749659 0.49807902927133613 
0.598874003247442 0.60972504755621282 0.26765443249727844 
0.25493570198535809 0.67000744543186941 0.41969640501758859 
0.52144203324512406 0.97423951162762767 0.54891408414315268 
0.50448272676300832 0.25252673701780076 0.50124143739419424 
0.69572627883082938 0.64796512900883663 0.55681488649356725 
0.66674357270375806 0.64692674143053919 0.60178734527725164 
0.54847295751357661 0.36880630620044896 0.47251185715043553 
0.57698888176154384 0.48397195335841925 0.53809273359086962 
0.51282773295405537 0.34960973071246226 0.44994333586314961 
0.24667404830774409 0.51768385932566008 0.45768961433109867 
0.60481736238033745 0.15043003182049064 0.52678860320920651 
