3
0.51587789011636775 0.65938520060420736 0.99933645086078493 
0.23688383219035686 0.71729513265719647 0.26624201977884321 
0.36780016947279226 0.37499475002763144 0.015142867669117543 
0.23789006373650667 0.40470767259119689 0.25488929005636812 
0.60094481081678519 0.32450151578149589 0.76420813574665392 
0.6281352203409456 0.36819231214572556 0.80830835100867882 
0.71457602854721824 0.23686147704485772 0.27869305951021311 
0.76314364134925605 0.42873651980779048 0.30969802790511625 
0.45942226619859894 0.31482622459881793 0.2273390403208404 
0.41523186720069893 0.2456067994378977 0.24138028220904095 
0.39245025026184072 0.32160800469471218 0.23679578002221041 
0.31673825400918942 0.46688495060552315 0.22272995931600359 
0.71732798774743278 0.28696681859569162 0.23685793758980217 
0.23772561723359353 0.60392054515502547 0.74387247961852832 
0.39900984731659306 0.25573000931574047 0.76210793627401952 
0.7595232130357209 0.60218010694680557 0.36862892826879856 
0.70403655770232787 0.76314399661054422 0.70349321845674495 
0.75926884595344224 0.61040585312708884 0.75212501513149932 
0.29970144893974243 0.70256557860221791 0.76314198346324491 
0.65639367687538486 0.59658200483155355 0.82997631591412668 
0.6156511544676081 0.75902904458397591 0.75360079683791137 
0.68966894911079413 0.70464033084036393 0.76314240451366044 
0.76314435187183227 0.58226855384971654 0.71771514360450728 
0.64799524739343473 0.39771799885263759 0.9903285509023636 
0.31564147030805101 0.51409886000600002 0.78323150930784569 
0.60980181683254298 0.76314457555486559 0.71835092973194881 
0.65518110430997734 0.66613629665107021 0.53637846642912401 
0.37839903474192244 0.23868520428839851 0.61995539497160534 
0.36177838537691909 0.28762357829695639 0.57546836595596862 
0.57692256882858506 0.34151182099041588 0.99508694691080568 
0.48860666522807772 0.39527922221461992 0.99999734211925195 
0.35689409529423533 0.38453738401376836 0.9225105131025626 
0.4482006673649086 0.30834902184725343 0.76541897147909743 
0.57190196367387536 0.66927238540849787 0.82986381650622887 
0.34331187730590895 0.40397372908563639 0.17590257419697791 
0.41987486907963645 0.5885049157636012 0.99999594738975051 
0.32225543549770791 0.76314291766885445 0.28012673617507278 
0.42661443887137435 0.74834228504060507 0.23889932158251798 
0.45773716980436946 0.68025169604370506 0.22104233661928091 
0.52295806337861384 0.68237244803974717 0.17292361619149371 
0.23685617444118712 0.61280339314003607 0.71097949484476397 
0.34666183335877176 0.60140795311603623 0.81045855021815671 
0.52545262919668845 0.68214544923447773 0.072039831369308527 
0.28768230167209646 0.71373209877842747 0.23686046389229526 
0.63460713364666499 0.59749021057783902 0.00081567991747411028 
0.54831787727433012 0.60251618412534669 5.2104988920720352e-06 
0.76314098346850812 0.29766299914210981 0.70883869032268243 
0.75934189820053577 0.24422614880974308 0.65608949426581964 
0.48538507692064781 0.76314386503228926 0.70655122867774378 
0.75370655943916076 0.38760160472839617 0.61490563207562066 
0.7581397466329125 0.52426309598370535 0.66218533060352314 
0.59400771574886446 0.60277418276745909 0.62859969158057061 
0.59540560312840463 0.39812386513755194 0.6293910558365482 
0.62572939089794266 0.24865246761859144 0.60007918379376946 
0.70443918716217291 0.23685626654596553 0.53043757664433344 
0.27946137125594078 0.27772063041773465 0.76314240451366044 
0.29746527649854471 0.2368582402197883 0.6944564765448602 
0.23685620075683811 0.5157526670912258 0.29145078183799034 
0.33140783469560686 0.42680224051452359 0.059691448992373664 
0.60116109915210969 0.35660203104194188 0.0043626349335003645 
0.59370598049483947 0.34187005594707398 0.16379661159678105 
0.55108428376692753 0.3234038899795264 0.056205493655296535 
0.2793625823021984 0.52471240940837149 0.34446963437034539 
0.57762369671738567 0.25249702633144039 0.23966613333614034 
0.63480779048531322 0.48907841274519609 3.6052441829137472e-06 
0.40170922784616925 0.25543061615465185 0.37575833811400994 
0.62585781127467754 0.69878341429781954 0.59464389661107042 
0.46436326650912363 0.75944117399382105 0.66377616433597719 
0.31797622117778324 0.47868144115030975 0.98114165188604274 
0.36949058162851778 0.48473135667707012 0.99999207898905795 
0.38639949263424928 0.31663905716285706 0.3910229946158178 
0.66175880653259722 0.75525659075478546 0.24384805869442788 
0.76017905168920152 0.68254231556676015 0.24673372771722252 
0.28973750138157167 0.34677363540191897 0.46323948295008971 
0.23685751653938664 0.34027232751406572 0.29314516765701232 
0.71434305608917847 0.56019001215783071 0.35442837142962402 
0.48108225746180283 0.31708381797990537 0.81052457618644103 
0.56578399587370587 0.39188581902200514 0.99999734211925195 
0.56495086867963851 0.59001627623012509 0.99999428950373948 
0.60907318908847841 0.63257918379376954 0.99743748717112013 
0.65384040083999562 0.60067606223125147 0.92598346850806035 
0.25052968142272936 0.3944919632001937 0.61931552991826355 
0.36940081894305821 0.36087332435092445 0.59315232551407626 
0.34928895111078362 0.60541435308235214 0.07796787911642572 
0.25348890268998581 0.23831325887758487 0.64465939652949189 
0.23685509549949735 0.45179310898363695 0.71265824916710963 
0.39615512549933951 0.61913483350087628 0.37963465981757988 
0.2379388529534055 0.6382352329724581 0.39269830158788632 
0.23685527970905412 0.71508451271309093 0.48902821564097027 
0.37690227946168708 0.69458901532097195 0.40193027931431935 
0.39298793164246504 0.7518454244977657 0.38001365782285357 
0.36558870742785565 0.6182276277493276 0.0084515081499570988 
0.52728167220172528 0.30604429713527825 0.76614225714601503 
0.39077194330556153 0.38360596786332701 0.38252659196530542 
0.76314098346850812 0.30341107415224133 0.28580746943437141 
0.75993052668143846 0.35640292682670094 0.24729538265588075 
0.67587517960431787 0.43269460423892508 0.22708069957526539 
0.75977510644680812 0.43869536212967303 0.3451242888195325 
0.6106727333014037 0.60796931331940363 0.37988681638517691 
0.38978531691938467 0.76314633870348048 0.29986007968379114 
0.28842356092862664 0.76314654922868819 0.49148236061915462 
0.29716769911737306 0.65730402734722448 0.50954437081910098 
0.25252972352777092 0.64312781248519746 0.56809319424634608 
0.36652604459976523 0.76230986942173984 0.6150097631065099 
0.38557094436345074 0.76314583870611208 0.70115562549670785 
0.6375174604344187 0.7616233993505297 0.60906453123930926 
0.32563018089378476 0.48775791969515953 0.0040085578496955043 
0.45379424318819372 0.23685424024084084 0.69322364092820565 
0.43889221635675602 0.65119350687627953 0.9996289230056683 
0.3464715712022568 0.60110977047489222 0.96013773611717834 
0.23751685517444643 0.33809523370929628 0.43208451534465608 
0.23685567444381872 0.28089485055341812 0.46768827532486668 
0.28687412171514892 0.27895301866832284 0.23685791127415118 
0.44331111415203078 0.23685639812422044 0.26909326793016874 
0.25114015189393735 0.34234060610207317 0.52263856506018391 
0.24491234256661809 0.24143534770869624 0.40651062362829665 
0.47723704085767971 0.25131500623680925 0.23905950494997397 
0.24528734059294427 0.52619998052641825 0.65927910905732068 
0.2368559902316304 0.53171576728543535 0.70397126857227066 
0.57124012505197341 0.24795481339571895 0.75926539860316522 
0.55850861311256261 0.23685458234430351 0.71401279466950163 
0.59571481202730514 0.39521053836558756 0.37213462034410344 
0.6610406261019679 0.34184992447408175 0.46380969047531329 
0.65702104199451583 0.28323468034378763 0.51304279977473799 
0.58652212356777067 0.68379415108341535 0.36843792927405644 
0.26354463923874083 0.76276286703754193 0.27964987026384069 
0.24166725438287168 0.75541906358387589 0.35052002357882328 
0.55483092194251604 0.32439509528897215 0.81698570007526272 
0.67307658907058387 0.51723731717201493 0.0038923742506618009 
0.68214683080615357 0.47341065310182578 0.044207425224077723 
0.27269324898290004 0.23685487181646409 0.47937960852837613 
0.34030410366261232 0.2465554260240736 0.49846911332045618 
0.34265795969494894 0.29903964979131692 0.49649293951084467 
0.7462503092088989 0.33380396682122726 0.76170206998910528 
0.2368555954968658 0.72976469860684945 0.37253764453871291 
0.7561747043436613 0.61592569249635531 0.61547062910195205 
0.7062773616980963 0.63113521770938052 0.58700393682138508 
0.4058391271624886 0.52959596265282816 4.3157667590776327e-06 
0.4422009357845485 0.67442496355282344 0.056235256656543942 
0.40861821779885366 0.67259344687659539 0.2337892168988584 
0.43219922526723542 0.67093858716533072 0.19417416224125134 
0.65402592617933586 0.76124111188888488 0.42913566244388185 
0.68926510913100447 0.76314557554960238 0.42431092467934378 
0.75743385561128629 0.75719684370082263 0.42866045441866091 
0.76314361503360506 0.71877304593133717 0.49123162509670998 
0.7506893384771659 0.76092945563444392 0.35580654838658743 
0.23789109004689446 0.31873844085031133 0.74554039189267418 
0.66143801874726971 0.24298281324835136 0.524507160488629 
0.65404103136299285 0.33951193677928015 0.54756827595644231 
0.69009368371745405 0.23685318761480206 0.40215317287803742 
0.74643336087704792 0.23828107483644823 0.34867508592060037 
0.76314587817958857 0.2790421760938101 0.50306069441739776 
0.57932355619180953 0.23755226288282699 0.6565176499071057 
0.49626673017510436 0.24290991889516367 0.75358213904137339 
0.70215388340061369 0.3431021020941995 0.48651417624117765 
0.47556962858090218 0.68236642175567497 0.93298903689980572 
0.29122562512828876 0.63696771332782465 0.57766317019384106 
0.23685630601944202 0.71087948221325148 0.56756138125588806 
0.45307277330119317 0.72511330203525248 0.65048283956400221 
0.25623578296956329 0.76178766164388612 0.59334135083499562 
0.66996284230082992 0.42968625165130714 0.92360145472918564 
0.33763288087957433 0.7627553670770153 0.42133170351734989 
0.75713719927789858 0.34156768911742574 0.45645415024131447 
0.76314361503360506 0.31040187946379227 0.41809156267598591 
0.68697914747817113 0.23782060357577067 0.25427184593765295 
0.5186821385150604 0.23685792443197667 0.27861077046962912 
0.47782619565160184 0.76314765448602895 0.2865129130899311 
0.49697814748343427 0.73599850790258992 0.23733330350892889 
0.75037126120388842 0.55208318640428211 0.34958476534334026 
0.75565462813353612 0.61025527497223697 0.2425958284430082 
0.65336158757059171 0.60134140083473242 0.19588581112730979 
0.39908882058515482 0.30536335335077186 0.62094060031262988 
0.29150704469976474 0.35954575239077691 0.57125641443992392 
0.31842861353361296 0.39333494297398436 0.38415147815011497 
0.26746680280630108 0.23685795074762772 0.28099299477371165 
0.32551881305887864 0.25436891121625671 0.23797664222819875 
0.54126917753064463 0.3170890021631465 0.22609773106457332 
0.6342094252135515 0.36105440234525082 0.23375990126367752 
0.74991871095415286 0.49174968815953601 0.23886905858390217 
0.47434881921674094 0.31946264756501286 0.98631267730169836 
0.41572760143367665 0.33662274145925553 0.93502676301703669 
0.31870821732517196 0.4698238298745796 0.93846585017973583 
0.5414129399318951 0.32077132488776372 0.95973863295456341 
0.75492492144778178 0.24122434881921673 0.56741009257846009 
0.63291361624412501 0.71623061194414772 0.41555244446081863 
0.65345335024552509 0.66313162825458816 0.45657401803148401 
0.76314361503360506 0.68838065325971964 0.62316479913263612 
0.76271053836558744 0.7419130030894574 0.64587999536844543 
0.76314361503360506 0.51297060278630113 0.29355363919137267 
0.76081252203935756 0.64135095341603465 0.40607252067094379 
0.52021986726385649 0.31717918589902161 0.17146454492344776 
0.76169254372345407 0.43257765748601323 0.74666862279672208 
0.68364190188472684 0.44674484607975751 0.76852227093541603 
0.73016878858532319 0.29428335903495245 0.76313850979731679 
0.6815182288514271 0.24352304724711976 0.75593367929642463 
0.29754877605907337 0.5098827243014511 0.23545678706954171 
0.3161975726443545 0.50572108831006157 0.077174120136209778 
0.24259824948289743 0.35800602365250711 0.24421553044457656 
0.31985313235193502 0.40274378819058848 0.2365582812722038 
0.27895895284761663 0.49136608491534256 0.65732751406571543 
0.63966447545012928 0.27398293956347597 0.57277972221198836 
0.63786837964010712 0.26675329340371889 0.42406211019941997 
0.5866355966547544 0.23846544228714589 0.34965131762464408 
0.62964392292672144 0.23685305603654716 0.66930100367892797 
0.35822621986200071 0.62022551197098963 0.22243806611544148 
0.63510386787437956 0.63002730248788164 0.59669204372608564 
0.24238588217956747 0.64596379755896027 0.24512255198656846 
0.26045118183588506 0.52899128162483355 0.23698243693454241 
0.23685485865863865 0.58359031005099971 0.3115001236835595 
0.62629894053189195 0.5464760053894453 0.99999473686980589 
0.75972576460123886 0.75300368155957065 0.58318106220493571 
0.70673822769353845 0.76314523344613971 0.59788803743138197 
0.65330871942779245 0.75331096941595055 0.54985023763032825 
0.71827979852737611 0.36140526891963726 0.42534876132230881 
0.41336200862100725 0.37270328840374523 0.99999313161509673 
0.43155357077068013 0.74384257188120062 0.76206667333329814 
0.53541349782369563 0.75839154793922137 0.75270424892500554 
0.49022778827479857 0.69207200225261967 0.23122123041457671 
0.58567557539170845 0.63813944400292633 0.00044344503449983419 
0.61309937842432405 0.64493809243109246 0.072253593402139993 
0.34363911242572409 0.70136642701880514 0.48073681191151624 
0.34102002094725814 0.75090248209219945 0.51463737032962986 
0.2868362271777517 0.76314468081746933 0.55260995994757922 
0.29269309108899427 0.63414617554644448 0.41756069704896287 
0.23712769932789829 0.67714337029805105 0.50091438992426351 
0.24049128688796373 0.60196581860095477 0.36636422966194915 
0.340430024052505 0.64035932705617338 0.42639704527870903 
0.23699448950268687 0.7404019320950942 0.71538452429197741 
0.50319224635659809 0.68392917668854369 0.81641565044394504 
0.5415385445339761 0.68644974236977707 0.76827577223277776 
0.23691833200877888 0.26339949526581441 0.28211409413634664 
0.24110302051041838 0.24453775243288195 0.31454250240788206 
0.23687062173356987 0.27167613591507411 0.39455289709001529 
0.67996355282340615 0.2368548455008132 0.59475073815400969 
0.76314495713180452 0.27202437092436355 0.59686630596681067 
0.33266730175104342 0.65420825416708328 0.53742596091599515 
0.35572896984752711 0.69921928042483983 0.56299990526365651 
0.74974139609791524 0.46306094441608203 0.65542028726164592 
0.76314361503360506 0.40786941910832047 0.70009713106773119 
0.49472844879763789 0.61963659401792626 0.99999734211925195 
0.37234351398150534 0.56953509455213391 0.99999263161772833 
0.43593028457744959 0.23895649233425093 0.6624396713701507 
0.23685506918384641 0.2777275251182888 0.55815093078457478 
0.50479708001536838 0.28281212993615823 0.65741653991294779 
0.72634959816000966 0.60845362655986024 0.38600373155930756 
0.72743401350519199 0.47769423581981146 0.34417839906105752 
0.33279274845921863 0.55569664107031014 0.99481665885969006 
0.24022513039405052 0.75065303603665245 0.41876821700938416 
0.28640304524713023 0.76314491765832804 0.4095481339571897 
0.43678204325240394 0.67135019026215659 0.016868911216256777 
0.72283814295714233 0.51755549970789627 0.65649415003078926 
0.23685664812290458 0.39099929737211914 0.30226688280587999 
0.2458046536597176 0.38659292582670618 0.38362055989179 
0.24628588796901069 0.46152700512102568 0.34308551007626276 
0.32159283372192782 0.45576100915258344 0.18802045778706428 
0.24041668201746302 0.64671363571770679 0.75326006178914851 
0.25148288693217402 0.56363470455418652 0.76072286461650207 
0.24691772674880658 0.62854723133036139 0.59841806095757388 
0.67991542149778161 0.5385379945368709 0.93474376450650265 
0.68218540955047602 0.49998756585491655 0.98320858837585068 
0.6194091083731138 0.56761323624612503 5.2104988920720352e-06 
0.64200633154562348 0.36514145978179063 0.76564444397661058 
0.58609817843063983 0.2368544770816996 0.31535902442618724 
0.35783919558318111 0.54744089504792082 7.8683796400635941e-06 
0.32557949695001609 0.55817286487965856 0.046323282509039387 
0.38187112173093823 0.35916878069062796 0.044437766117020439 
0.41898155799180004 0.34412209672580674 0.0041859516528860441 
0.46216769911737304 0.36110324419345163 2.6052494460637732e-06 
0.56968987005331551 0.28019756474965923 0.35880495365813858 
0.53875019078846953 0.76314412818879895 0.71330708785743235 
0.23821348308693113 0.4193544639238741 0.65264753869716474 
0.35571962779143268 0.37098050799732629 0.76719267267014379 
0.34022339356108655 0.40936575333814035 0.82393147930800359 
0.75530844574502232 0.24126153283403778 0.42537899800527362 
0.73545868179641161 0.236953187088489 0.45910624154609708 
0.75396661070204885 0.35801694464765976 0.42306824700922624 
0.4945450287103752 0.65073671980673786 3.3157720222276588e-06 
0.59409837316645697 0.76136063757559169 0.35891650570260153 
0.56179049057636543 0.76309073373298042 0.32604678396429487 
0.71486818490428994 0.76314439134530865 0.51188170062262828 
0.24642472934352977 0.36134974289609001 0.58529099846842914 
0.35248011852569194 0.33921706991015838 0.56012489407950483 
0.23778238009273639 0.74336023231456672 0.6491539255056552 
0.61299137899274214 0.39436225335656128 4.0947152909642792e-05 
0.76314361503360506 0.69938864795448441 0.57946639754527607 
0.76285685338498221 0.68253947347645538 0.50567152278145899 
0.73651399203162082 0.23711687043752405 0.70352808669428057 
0.41460097578433797 0.72658432060883893 0.36777301172099092 
0.67233375087499536 0.76098350798153691 0.49969731738254008 
0.65489584265345968 0.72541637938747683 0.52840003473665931 
0.68760756522334088 0.65516269651212355 0.23685551654991288 
0.63383790085315339 0.63856246809227324 0.232346461334414 
0.64332637722959352 0.43958796269493317 0.9999472371198046 
0.75633270351208681 0.75794223451455522 0.47207719959368633 
0.5483031141941358 0.25411209677843805 0.34911971515939388 
0.76314379924316189 0.54064461502834193 0.69513307824695658 
0.61713267298593166 0.76314728606691551 0.31260748627638801 
0.72917660959679154 0.76314083873242766 0.29833669296477383 
0.76314098346850812 0.70058251009205219 0.28239061899674212 
0.72943676612228359 0.66449954210767315 0.23685956916016232 
0.76311195730548786 0.63726636965068606 0.36574741711885728 
0.64084796922121456 0.32128216430439838 0.76314458871269097 
0.36073773295930023 0.62003538139272951 0.050470023841979739 
0.2585248761848622 0.23746815806232596 0.58670483313245714 
0.35133433508244694 0.24005624970394895 0.58064744396082124 
0.36647330803522082 0.36905720233051409 0.40395224235661914 
0.76314098346850812 0.72172024094610032 0.71523239351371837 
0.75607802064199658 0.75835215340971884 0.71737051383940076 
0.29174312240461892 0.23685521391992681 0.39867892800564203 
0.36081178520113055 0.24934427976694862 0.42109420476734327 
0.36156849174478034 0.28336304808922064 0.42496844753448665 
0.34350740259261792 0.23685345077131176 0.62989197425276711 
0.27392374250661844 0.23685871390150576 0.72291611623096719 
0.23939495055289178 0.24760870995415818 0.72488452692354244 
0.31980352734985606 0.24325094341608733 0.75673351719201476 
0.75131907200488413 0.7597596196862122 0.54194656870226998 
0.67990850048157636 0.29325333814032561 0.76314158872848037 
0.71676578018010428 0.37895351866569121 0.60079270635417703 
0.24978629059847052 0.23912020199893685 0.68598404745238184 
0.47922153041299781 0.31722358040220844 0.051145020289366905 
0.46201817358856007 0.32549566844385031 0.0066474650133420132 
0.50153580770627526 0.44396254493397402 0 
0.32639394003189459 0.64822639091373202 0.76314558870742788 
0.31741448729217214 0.52227247488171114 0.82348956058125999 
0.7615919916210967 0.32975148815006239 0.50199196320019368 
0.69289214267293331 0.65330410103104719 0.53580062736511913 
0.23685449023952504 0.71561203625244074 0.42854806027336695 
0.23822729880369053 0.66580461418624115 0.44817587802169462 
0.39607754696027914 0.39341546886595335 0.62304958921268838 
0.42384955868653323 0.5690555444445029 0.6441730043526086 
0.44678628007221016 0.75663021510413109 0.34469805422076727 
0.35329800895784758 0.76286586649543953 0.26499676317493065 
0.58959918632007202 0.66051408939952949 0.93905055762864409 
0.7223490928995111 0.4110906126809859 0.36998602638933475 
0.23827840379787474 0.44068895690022686 0.7488888479534318 
0.23884169030689306 0.47336962700196317 0.66953284456397588 
0.70839369266477548 0.54756392071620674 0.23682649038689269 
0.62306966805437869 0.36345360024420925 0.19748327640380842 
0.65372155936021392 0.33125003289456367 0.2368558586533755 
0.75518920953047608 0.30783394561081256 0.24117025699864736 
0.74685330603523137 0.42381525623549354 0.23866484913237296 
0.2368560954942342 0.47149053162878091 0.29802919458318639 
0.24063997031594569 0.44130766417018857 0.24769343319245685 
0.28251196046336596 0.45923528034062977 0.34784009031531415 
0.48896803174720133 0.55263139404529449 0.3428655638654533 
0.76314361503360506 0.62142795301077358 0.27414774132767716 
0.48282045883969033 0.23685455602865252 0.71410797837906115 
0.46136083494297397 0.23707323908821532 0.74261748622375667 
0.40692520039368213 0.34150184735869815 0.80793714243609238 
0.31067444381871678 0.35412130725627761 0.76314448345008712 
0.76084465344919239 0.67737834274556452 0.75056291808990472 
0.73085231130362471 0.68309654949184484 0.76313993084246923 
0.68777366961226516 0.62830836416650437 0.76314619396740013 
0.64281535360340203 0.38645195288445849 0.015758627586170526 
0.63666980700101572 0.62295068183851665 0.036110836258756496 
0.31626409861000732 0.50887859800737889 0.20312356250756569 
0.66648796585281134 0.57803728664585974 0.7914812553618138 
0.65357145488707946 0.30782641933463506 0.46486942173988555 
0.67158591270572265 0.23732871142783457 0.44764932816143072 
0.35685993757927592 0.59568461481781676 0.62515720969889632 
0.38928787216909383 0.23685716127809853 0.72065073341719255 
0.32828743006615757 0.56573814085189023 0.95793506349966573 
0.24652646565018077 0.75836654807079962 0.53396863700717367 
0.34301898411060994 0.71772436724017241 0.51266556491807935 
0.68108136272966979 0.55244026347229758 0.77139872948037114 
0.76200506839437687 0.55787389276898547 0.74448063431245093 
0.42287814274661711 0.74311486518492009 0.63756561807569434 
0.42845282393250561 0.7631362334935079 0.67811479939579256 
0.4530368787532697 0.68127263803874716 0.77494971079099573 
0.32505547339224528 0.64536780069578581 0.23685501655254443 
0.68437776643280823 0.38113937558223376 0.76315124657238642 
0.66750559207583116 0.42419935947705539 0.80089965315972012 
0.75816169388582166 0.47664766238072431 0.75584217977800106 
0.68326111441518722 0.51694645028184061 0.79925960915995176 
0.6139340582417987 0.6441215440971364 0.19151999200004211 
0.58746648701848936 0.72514522291987937 0.36909905737338222 
0.62876371703306821 0.75612782301145787 0.40171543833979817 
0.55442050304998391 0.32434349029741949 0.18571268045957651 
0.48107433645086078 0.68304607607328383 0.041625201972621151 
0.41068778585375865 0.31773826190388471 0.76377992747406587 
0.65782027463013348 0.32142292672143835 0.5047028173535929 
0.48158480744838184 0.31702166041231361 0.94379319056215483 
0.48890934784553763 0.35137658486007972 0.99999434213504135 
0.51562962826511438 0.32935162183356931 0.99752564460187054 
0.76314361503360506 0.37493788190588473 0.28132967721222524 
0.71739335582444308 0.35535098499481582 0.23685927968800163 
0.54177146436071388 0.73090627154593923 0.65215217288330063 
0.49903968926479336 0.75287399803158928 0.66179038531376144 
0.7208737059278636 0.23685802969458059 0.58265661759674947 
0.71957681801674722 0.35893628191430571 0.76314103609980999 
0.41721509360477049 0.41359736264545977 0.99999734211925195 
0.27555391813727298 0.65022909089952163 0.45268827532486666 
0.71176978015905179 0.46135629549318163 0.23683388508481534 
0.6797406066283862 0.46092211356782331 0.19307461539676102 
0.63871542781353785 0.64015019657791272 0.76542823458823905 
0.61615788864269128 0.6425662101778411 0.80601359992842148 
0.24560847048173434 0.24129355898126847 0.45744232925089867 
0.27128023010405211 0.23685563497034229 0.43454852869195426 
0.44604507344698185 0.32417975431708257 0.040408866269124877 
0.41224798816848329 0.23779120899363687 0.34768251219730417 
0.76170093841611353 0.27454188399008428 0.25172541197151588 
0.35993710559418107 0.64734223767243326 0.76413184667449119 
0.27387184804290499 0.63627916432018783 0.76314429924053029 
0.42158433376666438 0.66638169009636794 0.79616520439366112 
0.76310400997889483 0.73258897321593053 0.45196964752817087 
0.71965134394029506 0.76314441766095964 0.38183201667359645 
0.70578933795085286 0.76314452292356361 0.47371021731464569 
0.2573979084320609 0.34271694622659882 0.48166620175683283 
0.71779416950437103 0.60297360277051171 0.61907037331382464 
0.76155225498813162 0.58263273614349398 0.65105420497786848 
0.76310716785701116 0.61878680901679461 0.64938518744638185 
0.47025728811953621 0.68151447887116379 0.18649733422455667 
0.57988636901911039 0.49020735417182015 0.65730735627707215 
0.68444439766106491 0.49633584823237775 0.65758724954079184 
0.68083954821290416 0.53395212393618985 0.044198609481002682 
0.39136759806527333 0.39504646028178803 3.4473502771081854e-05 
0.62723959347582381 0.42966164651764993 0.3591216888332166 
0.23697272645933443 0.67613329666685962 0.73566452281830097 
0.25258659164951763 0.69218965952810774 0.76213427824064084 
0.6639756369703318 0.66371294098452116 0.49217625170393836 
0.68799206319966733 0.76314323345666613 0.53950200262103876 
0.76314574660133361 0.7292676485913232 0.54636201914726756 
0.46009121004626291 0.28739023741980307 0.65253188141115048 
0.47087954800237891 0.39976504071031205 0.65479560633891398 
0.23685664812290458 0.43388196641070309 0.28100207367329644 
0.23689299003689457 0.35610682312198361 0.37430647733432976 
0.54639957158120223 0.35312557565486502 0.99997139488739528 
0.60322298303693134 0.39792789248477639 0.99999513160457043 
0.47465071236467177 0.28464917289909003 0.23679167478065904 
0.28752430250367106 0.42588142957142333 0.63894003189456894 
0.46736338229798791 0.70536351124467767 0.34592888984794812 
0.555819337792959 0.62812686512176252 0.35261819674633288 
0.65238556639175582 0.39710621259888107 0.9421801990515839 
0.7631455097604749 0.2733295745811864 0.41895611075731176 
0.29951221309361531 0.5436558097062647 0.23611733622454617 
0.26734985605338923 0.38309928631954571 0.23685456918647796 
0.23903371561202308 0.42610782311672046 0.34608609954684444 
0.36079418003063141 0.37991714517292019 0.96098854742869766 
0.36499897368961215 0.4021454492344777 0.99916182020094624 
0.47464255451287096 0.60682939826632487 0.65554349713948867 
0.5336331914042558 0.68073529876158545 0.80105336287703754 
0.27110117841485043 0.38707226540912942 0.76314490450050254 
0.3419262530197209 0.28358491534255093 0.76314350977100109 
0.35733238246114496 0.38406114967815963 0.79919274109083638 
0.76314098346850812 0.7179977342224515 0.31522820932521406 
0.65921060941784515 0.23941425308287856 0.56345453444981863 
0.64463063352298144 0.35666816227283016 0.57913024141978198 
0.63801072099620526 0.32096442913458356 0.57585246919753053 
0.3596780280103789 0.73741410571523314 0.5724354345503444 
0.32401971568570692 0.76245447392382149 0.48348782374829602 
0.23721535676128019 0.61245055289182693 0.64719219898842639 
0.76135925600391574 0.35871212519934104 0.5988782690617418 
0.76314500976310651 0.362795551076047 0.63582302198409479 
0.76313587823221984 0.2742746485544813 0.67888284798501053 
0.70292469513318356 0.23685939810843104 0.72441687149014999 
0.72576070652259728 0.23685800337892959 0.65393329508792053 
0.74753877611170472 0.23816328598270536 0.60822014094662658 
0.65661007047331332 0.66701481834306131 0.23685441129257212 
0.58798811585202182 0.67349260003894718 0.23261514413082035 
0.68398316324650921 0.50386038757690754 0.94742848721848827 
0.55607920484629025 0.67507206541018205 0.17834024557765482 
0.60718188325324607 0.73742576354861289 0.23687235856653388 
0.65437076646965009 0.40001467097541593 0.051034494555291798 
0.62096665280709051 0.36148732111936255 0.030752811827306104 
0.62780664312293089 0.49009948631849309 0.99999678949058157 
0.23685701654201818 0.64941235835600863 0.28477876432229299 
0.76312169409634689 0.48398949216056758 0.26809214162030726 
0.53105954705501546 0.68133274298556323 0.035878890111104678 
0.58529489318477268 0.60468146220283048 7.8683796400635941e-06 
0.38900837364013874 0.59553069457529173 1.3499928947724449e-05 
0.39111604675764866 0.49448559481265886 5.2104988920720352e-06 
0.35807653643928194 0.42054585239025061 0.00023118299377372642 
0.7626609333635086 0.48984369819106216 0.31815364129662471 
0.59225590917942539 0.50816715438339799 2.6052494460637732e-06 
0.37232459302845777 0.36778694585817973 0.16600478418534637 
0.64187954273924874 0.70963717296224749 0.2368567270698575 
0.29313106246809228 0.65705271288045852 0.23685849021847255 
0.41943608191535836 0.76314744396082124 0.31610733627717746 
0.6059930210893627 0.74815520707785743 0.61896768964373872 
0.6357536802437882 0.73386741385571652 0.76300366840174516 
0.65806282598512644 0.64452256830227217 0.5654475502760512 
0.46559568107536276 0.68069519370950682 0.80705969968579105 
0.41786356387597962 0.66447991063204936 0.96550789206372589 
0.44551860253367087 0.6164894526870911 0.99999705264709127 
0.63938081904832078 0.76314897026857742 0.6459114425713548 
0.7297763959137058 0.7631427597749485 0.56746653964979132 
0.6695692391092678 0.76162995194762129 0.46675309603633663 
0.32586652175514863 0.4411165599128426 0.80332027199856837 
0.59433455613391506 0.2368553454981816 0.71704059452318669 
0.60500771048573432 0.24042527407750486 0.75207569960158094 
0.57110759943368716 0.63283544560291793 0.64046886595333707 
0.62012078883795352 0.55752971036994547 0.64674193820032522 
0.62297716854121821 0.24408180746417124 0.39389374266451227 
0.27666380703259458 0.23685708233114561 0.31433521402518932 
0.23685843758717062 0.27717010699943684 0.31909705738390848 
0.64990873732243515 0.60643511086783752 0.9646728175114867 
0.63632749301319469 0.61087021910410999 0.99522491986884276 
0.60917434645080815 0.57981830358787589 0.99999207898905795 
0.32360648101852096 0.49627661170204368 0.65749301319466735 
0.40838906111020468 0.48686345071868042 0.65714356766543336 
0.3023025141972937 0.23685879284845868 0.5109473634349293 
0.28512134146662388 0.23685474023820929 0.61417868853321822 
0.2914575186446387 0.76314383871663827 0.69601865253340767 
0.24920303051036574 0.76083448245009233 0.68863484929026686 
0.76314240451366044 0.30918004378924324 0.46214151504465761 
0.33743103983663247 0.48558240482944826 0.34305182604302081 
0.42318595691601624 0.41747771064362821 0.36018778848532373 
0.72065644391345307 0.23685626654596553 0.41757106541544514 
0.64981397466329116 0.23685310866784914 0.35029465634391399 
0.32248182904300504 0.55859636265072288 0.77392961089678469 
0.32829893000563154 0.56571743043457667 0.80691914779395901 
0.3094777132751933 0.40375725654075506 0.76314790448471315 
0.75956160757048641 0.39051424729343531 0.24697248961847568 
0.41132586144283451 0.29439172688564796 0.36978900111052043 
0.40295230025105133 0.63822918037273491 0.99861287572170665 
0.76314364134925605 0.72624516449913423 0.60873026984068501 
0.48219664633344034 0.31195216077810117 0.772781774832764 
0.34405834706133126 0.76314368082273254 0.36184446397650538 
0.23685722706722595 0.71698521323571984 0.67396287387961107 
0.39382400618944113 0.64997298698427897 0.84041686622701983 
0.52231259309161526 0.36114387555854971 4.2631354572053581e-06 
0.42273114352029728 0.33139171635938758 0.22389269003847345 
0.41680001684201662 0.33620571733832982 0.19177004331556147 
0.38391855832337723 0.35691776622228305 0.21581657464960707 
0.37340935047710277 0.27214308082589039 0.23686806911542568 
0.25626228283009039 0.51742531618254639 0.76238911900463679 
0.23685554286556382 0.40845141604517871 0.72177999063162823 
0.23892200567365429 0.36958551533939299 0.74868024378819054 
0.4122717248856585 0.66160695206867337 0.044444108188904263 
0.76266445966073859 0.67860109946789748 0.46226888279535366 
0.62927581960094947 0.64851094204767346 0.40884203241035572 
0.38850158683375352 0.60640040052420774 0.99993107931010883 
0.45356637596644228 0.34419807001015784 0.99969763317035165 
0.60177501697359492 0.27584969289635319 0.37984468502797353 
0.45353692875300655 0.76314320714101513 0.72312943089773207 
0.32517907800485257 0.55671305677338545 0.18978844848185006 
0.61599849474476454 0.3631907068910164 0.39194072662775459 
0.23685480602733677 0.64504214451502884 0.62905268919637258 
0.39890300577365378 0.66453196298966843 0.62076373282245878 
0.39306461544939236 0.6099966973858032 0.62088312693091086 
0.63923597770538043 0.73495348708691 0.5736413229404056 
0.59973479086952175 0.71365467813327299 0.62194348977110647 
0.6509544423450403 0.69420817522013045 0.76314448345008712 
0.31908213640980837 0.46702268672270147 0.031475808022063012 
0.35609899421581992 0.38559482581670623 0.044626159862316495 
0.23686075336445594 0.72239071110152053 0.52397440013473606 
0.72997423697770003 0.64788520849890263 0.76310416787280055 
0.41571310150999202 0.23685563497034229 0.29717359382319042 
0.36220867258593376 0.23685102973142252 0.3652205251551307 
0.54488934268767009 0.27273486718490958 0.23688988479008005 
0.48433813506244705 0.31672931984568503 0.18785372182251669 
0.45945608181009573 0.67890875574339082 0.9754564186504282 
0.68052454987079014 0.53540424787237961 0.96894345292919515 
0.64882421671464885 0.39203694980552733 0.90664085978494846 
0.23685675338550849 0.34759865737548751 0.71057923379350629 
0.23685946389755841 0.72877941431887194 0.31851192888458479 
0.30683814822027256 0.61659482055357606 0.7631480623786191 
0.32949239740843472 0.68132892721617255 0.76314177293803709 
0.56583636401913673 0.55705402866300702 0.99999473686980589 
0.23685580602207362 0.49765868337535069 0.69978508007852591 
0.28821745675022764 0.48686016126230913 0.76340758732848768 
0.76313785190604255 0.59710826521965676 0.33517102541565569 
0.42521494623712508 0.48318797006331549 0.99999734211925195 
0.75068075957494962 0.76080664049136582 0.62006065757548645 
0.52372505934179292 0.31764315714127822 0.79960479155372854 
0.76314340450839735 0.27321762780195891 0.63828843006089442 
0.30975829074583816 0.34262499934210872 0.50586696912121509 
0.34473389613738875 0.32067085173235932 0.52791274782764297 
0.34716448860795468 0.27473756717069908 0.53781048520797259 
0.30239148741322414 0.36479201425255658 0.41935637180856938 
0.75443629244056609 0.75884738764532811 0.3939087425855653 
0.72643788716901492 0.76314339135057185 0.4191058731269835 
0.47963658086010075 0.23685781916937282 0.27259240740838203 
0.3439237161909674 0.51537261645991339 2.5341971884362824e-05 
0.34900371576991701 0.45756542070831208 0.00011263098615266198 
0.33167230698785799 0.57404362345461335 0.91976068547007639 
0.33768656480755366 0.58617740169788579 0.83848335008763109 
0.33242317145699235 0.76213073878558535 0.54814006242072411 
0.2368566218072537 0.72733942189777945 0.60957934431924032 
0.23829937737169804 0.74623569086478492 0.56925039868211214 
0.64876411176783277 0.69502053936558228 0.44828540376103282 
0.55521752517092016 0.74341491623728295 0.35197464750185525 
0.72271127520381473 0.23685737180330629 0.49393497928958263 
0.65779730106683654 0.2561292177409592 0.49031355098131058 
0.66249372371724358 0.39930109578370643 0.23006799964210711 
0.23928595112657303 0.57056922068831217 0.34470752785511649 
0.2774795922126726 0.56045453708138382 0.35446021336729805 
0.2368559902316304 0.28702626565123335 0.42802990510576255 
0.64355800758943371 0.61478506692070045 0.79704706817332538 
0.73565768074904869 0.34349925789864266 0.51700504207872588 
0.76313927295119499 0.27223894874237509 0.53892105831021941 
0.75100528418271484 0.23911962305461548 0.5316960173893821 
0.49067275961705464 0.31637919010952575 0.85055549707633116 
0.55980623786190598 0.65220142262409153 0.99933992452671294 
0.5325182762195988 0.68103198141062415 0.94117552012884143 
0.52884216398861061 0.61946477913274145 0.99999728948795008 
0.76314361503360506 0.44146250546049759 0.71476179072741719 
0.76314511502571036 0.51765584128504583 0.72301001047362901 
0.4482868248061852 0.67640668996478959 0.15897837379803265 
0.32374850658680743 0.23708368640165056 0.5368364903342614 
0.37559857579696948 0.73010735469813315 0.40330442997668431 
0.62672922774090667 0.4560861916516229 4.3683980610609296e-06 
0.67229935631917725 0.5567297408961005 0.01324585133762457 
0.64110217840958728 0.53866038862953358 4.1052415514220009e-06 
0.65996057915484652 0.59038482692196359 0.060415708338377172 
0.60536731385624287 0.27395238709269948 0.61706480492207927 
0.64446850279735368 0.60637650591312675 0.38402884721659358 
0.42010570996994751 0.6474720264630186 0.36419560949679208 
0.63956637070331213 0.76314523344613971 0.28251232888247957 
0.73051299730001418 0.69799470792258989 0.23686549018163061 
0.76122480934310865 0.72035601128415117 0.24879848000799992 
0.75166572807511545 0.76058948373955926 0.3225532760353893 
0.76001021047257644 0.27891162414934656 0.75244164504397348 
0.39364813869400689 0.35010772311724675 0.9657424960921257 
0.68515370971731726 0.76314657554433918 0.66925860916521485 
0.67247627644065022 0.7346487781643255 0.76280361682306941 
0.67596896858437583 0.33994656607070489 0.76314356240230308 
0.74775032762985461 0.38066927279330109 0.39483097457381799 
0.76314361503360506 0.34411725464602816 0.35727861958621265 
0.76314361503360506 0.27499480265893339 0.34596717912010988 
0.70965881758517058 0.23685684549028696 0.34739532949826579 
0.285571602254725 0.55684571396992644 0.64677946431860889 
0.25129315108867845 0.55755210498892116 0.64832224567239116 
0.33939745053973402 0.4081141809779949 0.78043662928089841 
0.76287035331392983 0.7420489234267188 0.68749832895616336 
0.63938124009873631 0.67207687064804922 0.57345474497502646 
0.41852092883721664 0.23685521391992681 0.69551218151483407 
0.32072218040957678 0.23685905600496837 0.72195998968426478 
0.6700988152693933 0.55956080494313187 0.35450539734001396 
0.50199727896168966 0.41922143830821945 0.34242164514923601 
0.63530665628075644 0.59223458034431398 0.62756582860090204 
0.6772653301824727 0.71867220435681911 0.23685627970379103 
0.31759911789937945 0.52317328593007406 0.044234898763690689 
0.41314400976836962 0.64010111788885315 0.0003960242314513529 
0.23718333061404939 0.67823133825611448 0.26108488902689986 
0.25394637396645281 0.76244876342756085 0.31785111657307064 
0.72860440208209432 0.76291781359045485 0.26370605944179237 
0.76314327293014239 0.33028232746143443 0.61648501849990256 
0.23849145530812993 0.47910383366403336 0.25385061131257203 
0.23685759548633956 0.37184397713696249 0.27476594860027048 
0.23743335561391782 0.29225802758932851 0.25662004410503103 
0.23691262151251835 0.56794028715638345 0.73082689038478743 
0.28992373724348819 0.53002277619591476 0.7632987721117257 
0.25603181035889289 0.6387346250809206 0.42342895563707555 
0.23688283219562001 0.66896359756001278 0.41182864827027221 
0.41018078852216566 0.33966509386792704 0.1500837100857364 
0.37459192320040424 0.36561977305382604 0.088011115730969813 
0.31783827453539715 0.73420317524644607 0.23687606907332065 
0.58428653007089437 0.66340678470113312 0.061207783116930925 
0.2694791343203457 0.61357233646138709 0.39114454660764941 
0.45184446397650541 0.58378196693701612 0 
0.26288506376282228 0.2370314761501256 0.51623136194020025 
0.76305535234025079 0.41595187656907073 0.26774580133788772 
0.30227893537402434 0.76314615449392376 0.43995081604833658 
0.23758148641322946 0.74400004473660664 0.46130391418992528 
0.46562228619849366 0.66694616080967994 0.0014458608112588589 
0.59196746332914041 0.36371812516776225 0.62799766843332394 
0.63002984194820022 0.43736344808711536 0.6445272393303193 
0.49444523976189597 0.57310081262730195 0.99999855263919657 
0.32970105420497786 0.76314562818090437 0.62127173014878867 
0.41833379824316713 0.26621255940758209 0.63494126346703439 
0.36851361308624692 0.31948893690033209 0.58653630770364362 
0.43883724296187915 0.38724397503171037 0.35475242235567184 
0.36400703154193925 0.40346823174614871 0.37581775885390073 
0.46067862800722104 0.71624126978279068 0.76314679922737239 
0.39221330414050448 0.76136592702143668 0.74705862074410134 
0.41482386934805604 0.33703316035178765 0.036264124925658281 
0.3245085289024795 0.44555690496365807 0.97535584023241984 
0.38674843816611493 0.43789162951773941 0.99999734211925195 
0.6935151657096541 0.35005456550228686 0.45207630486155331 
0.39061241782937983 0.72487251382887452 0.76312656249177635 
0.68429939842421883 0.67082756143388722 0.76314419397792643 
0.55718756743385556 0.559062570723312 0.35092928458271266 
0.5747453960768627 0.52641605833653504 0.34459229161951777 
0.66199888421639885 0.4883734690870048 0.3428231430360893 
0.68223804085241657 0.52524282766932806 0.15080236419808313 
0.68278382745353972 0.47879494055294447 0.088255114446766036 
0.66966702806827327 0.76314765448602895 0.39419900421576726 
0.238430376682228 0.32571519360424417 0.25049470792258988 
0.26417745169762263 0.30789362950721311 0.23696356861279677 
0.66214459397582115 0.47063932558249694 0.99917818853584972 
0.68106017863063872 0.4675294472134357 0.96270751206572602 
0.40928679322740408 0.33811962831774567 0.62854819185162181 
0.73767264382819031 0.3911199546318177 0.7631058257588117 
0.36887742696091075 0.41770360419155689 0.634303635244025 
0.32918384640080844 0.43846112652038677 0.64490663207035748 
0.34222369882263776 0.67694445029236694 0.51125073025931445 
0.32706193651612359 0.43776668280693259 0.14513752559197052 
0.5402754196030547 0.23685637180856944 0.30800485260603888 
0.53127357224435656 0.26680463523876197 0.76301177362224404 
0.63241314519397263 0.23685655601812622 0.71414097820537781 
0.65064939131899302 0.23688079273266982 0.61917579381161147 
0.23685551654991294 0.5509090083736401 0.30350966573860139 
0.34487863221772519 0.59854417871484888 0.15774064347029754 
0.5662921510939416 0.56763497297382648 5.2104988920720352e-06 
0.7080016947279224 0.47078208798901061 0.76321119362529666 
0.26986139546633969 0.56720571207519965 0.23685372708564689 
0.67439079268003854 0.44129805895758445 0.036766517018331446 
0.27988244798711587 0.66931670096473184 0.76314295714233071 
0.26238280324840396 0.72367717801485254 0.7631452729196162 
0.29284706396282123 0.3880426550386577 0.61063952294987922 
0.74402176830648259 0.55229144846606071 0.64924574081189046 
0.72087960063368084 0.48105224446187128 0.65625949337108747 
0.31174864869132268 0.76314557554960238 0.65498228956689697 
0.30644146609754686 0.76136716385703229 0.74903634717712009 
0.32904734711922567 0.72689166109652048 0.76314132557197056 
0.67246188177956956 0.62550827364066508 0.59505099973158038 
0.30832548249746056 0.76314612817827276 0.52088628480902732 
0.50124917763590715 0.31539614265188076 0.21672188567428591 
0.38270885416392547 0.3582218383061142 0.7866380176946437 
0.2368564902289988 0.42384212451513414 0.31290880047999747 
0.46730198788427429 0.68095763969663314 0.079746738175062226 
0.76308066799648422 0.64297957642328196 0.73402405776811697 
0.43409487318487794 0.4752919853053405 0.34441500307893114 
0.41869779632738774 0.57518503849979741 0.35858266535439287 
0.39676738543481349 0.55116616491492154 0.35101928410903099 
0.31854427081962727 0.55901054468134381 0.35389687422697769 
0.5080673785927442 0.59310975994863191 0.34251532886669012 
0.59048636586123227 0.63790733996136861 0.37122709880474314 
0.51975589602159988 0.68735663233351407 0.34377553276035389 
0.62307574696975276 0.57444751606570488 0.36132254567081223 
0.50577060120736206 0.31603658664954393 0.96760140736101397 
0.44980250103946823 0.32306552333935085 0.95257006542070832 
0.4263485192183199 0.3319623186193757 0.97800787890590046 
0.58457852853406034 0.33674100399471585 0.94574918026747223 
0.59569468055431285 0.34303386561123361 0.91504649975526442 
0.46083457455487076 0.62186374019084112 2.6052494460637732e-06 
0.49088120588839007 0.38454891026889332 2.6052494460637732e-06 
0.23700185788495853 0.31287270856469179 0.50201404203135769 
0.5690799522107779 0.76314507555223399 0.69882092725827749 
0.58119049373424347 0.72317539118215168 0.76314329924579338 
0.23694583186404283 0.55718597533697189 0.67877745380287469 
0.39637112436250332 0.34671866200704204 0.38155446550281313 
0.23685620075683811 0.3900836706122599 0.33659604423134615 
0.65689530581417999 0.69454885763759133 0.51275003815769393 
0.28539557686538491 0.38958483113246772 0.3877013805190499 
0.68021473571191726 0.46324812764143347 0.15254588133746666 
0.65270124894079506 0.39772436724017241 0.085041710306787865 
0.61976342229777737 0.36052411566254916 0.85349106057336543 
0.36715985705338394 0.52767994642133464 0.99999307898379475 
0.40804664185977968 0.5550393024247241 0.99999734211925195 
0.33339932421408308 0.5039665185972706 0.99910113630980879 
0.31899313687822695 0.53032724827764066 0.97599799474739601 
0.33060394418976741 0.42929254319714105 0.02563860190209527 
0.6951144467660697 0.34451588412692569 0.52588515323603557 
0.66358787585328494 0.36036103757348648 0.42654001821043042 
0.63944068715427815 0.32196729227740906 0.42686930595102129 
0.43121396729490896 0.61242657933379296 0.3582950616049389 
0.34847356066547019 0.58579806158914949 0.36801343150825522 
0.35466600175788549 0.23813302298408956 0.25345566602281033 
0.34490344787659011 0.2368573454876553 0.28582049568160162 
0.51224554081294305 0.27081727201435779 0.34297414224135658 
0.2738522428829322 0.76314589133741406 0.66035965600181046 
0.35805727338277166 0.76314618080957475 0.65474936974015918 
0.31774301187888487 0.45485959284424821 0.34894550554997078 
0.51697441066099648 0.68301289203741034 0.20836277177488538 
0.59636470334366665 0.34334781132730885 0.79495397392645306 
0.554556712859406 0.32252478934321399 0.77979036952437086 
0.65126436176651703 0.27002248672375406 0.76300379998000012 
0.3399614738869795 0.5906633780874837 0.04875729601423151 
0.35085439024005138 0.58267315698338429 0.001998094746869683 
0.33414679396424229 0.42070193051615518 0.95402782090620575 
0.67002568407534691 0.5702109067847011 0.94598838953479181 
0.62317808853637613 0.63648274219609369 0.94373776980121149 
0.72053852348145531 0.65745023710401518 0.49695656864963866 
0.72971218572533836 0.65130682206935753 0.54347792906353121 
0.76314361503360506 0.70041922147778168 0.4324379345371866 
0.763141009784159 0.73036259019689376 0.35540941889779526 
0.70887384803237874 0.59151395255814443 0.2368534639291372 
0.76299664212293616 0.58095719233056664 0.26171630675628021 
0.68387676906963646 0.49780794574765397 0.20538757690748993 
0.49988755322340406 0.74381465097552124 0.34154680764838075 
0.44002826300914205 0.68424599081057469 0.35432221409361003 
0.55198541060310213 0.39897736064547029 0.64877779590633733 
0.52555681285887967 0.31255910495207917 0.65549041847148171 
0.57457710748890789 0.43567248330271946 0.64561594412660983 
0.63626128283535355 0.37660700469997527 0.96605981021152521 
0.60875442760827569 0.35349928421429366 0.98469321214098871 
0.23685485865863865 0.61535822179883271 0.32202041041889251 
0.75495213183088505 0.2408462192304251 0.28608481007994691 
0.5669563844400819 0.73204044978710647 0.23710335735075078 
0.45884240082946931 0.73399575528549854 0.23705798916847809 
0.70965084394292655 0.64013182825353554 0.42809893105825758 
0.45939384529555105 0.32073619349371851 0.91799419476739597 
0.41816919384634815 0.76314533870874368 0.71426000389471633 
0.35343532402461042 0.32082192988457958 0.23685362182304304 
0.3244979500107894 0.5544132530881416 0.097615644128188794 
0.76281314308872061 0.25990582944300294 0.38357016542018196 
0.69264193346350811 0.23685795074762772 0.31758977584328502 
