3
0.492396 0.60329900000000003 0.50329900000000005 
0.55475699999999994 0.47253699999999998 0.011245000000000005 
0.51549100000000003 0.46828700000000001 0.99185299999999998 
0.26439299999999999 0.47558800000000001 0.22151599999999999 
0.55260100000000001 0.40126600000000001 0.50232200000000005 
0.26316099999999998 0.49667899999999998 0.73024599999999995 
0.36715700000000001 0.43498000000000003 0.49046899999999999 
0.61370800000000003 0.49055700000000002 0.74944199999999994 
0.45407200000000003 0.45899200000000001 0.64027100000000003 
0.47753699999999999 0.44359399999999999 0.37552600000000003 
0.34956399999999999 0.54732700000000001 0.49255500000000002 
0.47642299999999999 0.55350200000000005 0.62734599999999996 
0.44390799999999997 0.55122499999999997 0.36277799999999999 
0.41147299999999998 0.47357399999999999 0.83044800000000008 
0.60097900000000004 0.440971 0.66422000000000003 
0.64237900000000003 0.56974000000000002 0.19440099999999999 
0.43526799999999999 0.48607499999999998 0.15140700000000001 
0.66232999999999997 0.55900700000000003 0.59889300000000001 
0.32087900000000003 0.433529 0.65378700000000001 
0.35906099999999996 0.56737799999999994 0.79971100000000006 
0.69823599999999997 0.47854099999999999 0.38224900000000001 
0.66459099999999993 0.477719 0.51684300000000005 
0.51877799999999996 0.56921900000000003 0.95939099999999999 
0.56348200000000004 0.55411999999999995 0.35828199999999999 
0.64788599999999996 0.42303200000000002 0.147341 
0.52798100000000003 0.57053699999999996 0.042897999999999992 
0.59062599999999998 0.49543999999999999 0.17900500000000003 
0.38955699999999999 0.46441399999999999 0.70686599999999999 
0.39466899999999999 0.49845800000000001 0.283022 
0.665188 0.535304 0.076604999999999979 
0.34994800000000004 0.55102799999999996 0.074280999999999986 
0.374311 0.45167600000000002 0.053682999999999981 
0.36843899999999996 0.53412800000000005 0.95182499999999992 
0.44383800000000001 0.53070899999999999 0.85792800000000002 
0.57647000000000004 0.52211200000000002 0.84198200000000001 
0.72462300000000002 0.50702199999999997 0.84693299999999994 
0.63125300000000006 0.53595099999999996 0.94983899999999999 
0.69176300000000002 0.430145 0.82256200000000002 
0.730881 0.48276999999999998 0.17335099999999998 
0.34603099999999998 0.42810100000000001 0.21057100000000001 
0.70047499999999996 0.57055800000000001 0.71812999999999994 
0.73400399999999999 0.50367300000000004 0.71118499999999996 
0.340007 0.57657400000000003 0.32724300000000001 
0.29724700000000004 0.51793199999999995 0.37210799999999999 
0.38239000000000001 0.42574200000000001 0.34948599999999996 
0.66824899999999998 0.42451 0.31654499999999997 
0.60996799999999995 0.46206000000000003 0.29968700000000004 
0.47544900000000001 0.42327199999999998 0.072068999999999994 
0.44923999999999997 0.50612100000000004 0.0074179999999999802 
0.34851699999999997 0.57675200000000004 0.67809900000000001 
0.31986700000000001 0.42320999999999998 0.74634599999999995 
0.307396 0.46488299999999999 0.89096900000000001 
0.479377 0.42278899999999997 0.93323800000000001 
0.29756199999999999 0.51959100000000003 0.628054 
0.394565 0.54297700000000004 0.69227400000000006 
0.65588999999999997 0.57378899999999999 0.28729099999999996 
0.73402800000000001 0.50602599999999998 0.28184900000000002 
0.66918800000000001 0.45546300000000001 0.088895000000000002 
0.63464300000000007 0.56328999999999996 0.50210100000000002 
0.675848 0.50920399999999999 0.46928999999999998 
0.63284399999999996 0.56169400000000003 0.69989999999999997 
0.65644499999999995 0.577573 0.840194 
0.31880200000000003 0.50336099999999995 0.548987 
0.32150599999999996 0.49751600000000001 0.463173 
0.335893 0.47069099999999997 0.46990599999999999 
0.31168799999999997 0.50319599999999998 0.090951999999999977 
0.44247399999999998 0.55561400000000005 0.124033 
0.31979000000000002 0.57559199999999999 0.193436 
0.41589900000000002 0.49088300000000001 0.98208399999999996 
0.53826099999999999 0.44947500000000001 0.87856299999999998 
0.65184700000000007 0.42824400000000001 0.71585699999999997 
0.61345300000000003 0.57617600000000002 0.63115999999999994 
0.67768800000000007 0.48010399999999998 0.55632599999999999 
0.67964899999999995 0.457928 0.60092299999999998 
0.61575500000000005 0.52969999999999995 0.22797299999999998 
0.667184 0.54233299999999995 0.43393300000000001 
0.64461800000000002 0.57558600000000004 0.38023299999999999 
0.32964499999999997 0.54284699999999997 0.420016 
0.35813499999999998 0.56140299999999999 0.25661800000000001 
0.37690699999999999 0.45899000000000001 0.22239100000000001 
0.39363700000000001 0.58221199999999995 0.39560200000000001 
0.28067200000000003 0.51204799999999995 0.85685 
0.57803300000000002 0.48371500000000001 0.67120800000000003 
