3
-0.062785599999999997 -0.0083047499999999996 -0.0076858999999999999 
1.2528900000000001 -0.214285 0.0325738 
-0.370813 -0.78411200000000003 -0.098844899999999999 
-0.32546900000000001 0.037387900000000002 0.36126399999999997 
0.33150800000000002 -0.53823200000000004 0.28510999999999997 
-0.65688400000000002 0.49925900000000001 -1.1013500000000001e-05 
-0.65589799999999998 -0.12993399999999999 -0.140039 
0.13015199999999999 -0.61037300000000005 -0.049419499999999998 
0.67557800000000001 0.11897099999999999 -0.126471 
-0.198796 0.53059400000000001 0.0972079 
0.061673899999999997 -0.31944299999999998 0.18593899999999999 
0.482122 -0.48199399999999998 -0.21087600000000001 
0.081962999999999994 -0.498332 -0.29787999999999998 
0.30069499999999999 0.027965299999999998 0.107617 
-0.62641199999999997 -0.40634300000000001 0.119836 
-0.46299099999999999 0.056224999999999997 0.114217 
0.84492599999999995 -0.172317 0.189191 
0.58220300000000003 -0.25209599999999999 -0.0282939 
-0.38372200000000001 -0.27525300000000003 -0.018132100000000002 
-0.25672200000000001 -0.35928700000000002 -0.214779 
0.18243799999999999 -0.31829099999999999 -0.020384200000000002 
-0.14854200000000001 0.215693 0.27937400000000001 
0.167765 0.36232599999999998 0.121688 
0.92676700000000001 -0.32414399999999999 -0.30486799999999997 
-0.72383500000000001 -0.28236499999999998 -0.0147441 
0.88723300000000005 -0.345304 -0.069645499999999999 
0.026391899999999999 -0.23147300000000001 -0.18899299999999999 
0.91812000000000005 -0.083922099999999999 -0.182591 
0.57637000000000005 -0.32968199999999998 0.317853 
0.27095000000000002 -0.092758400000000005 -0.021694999999999999 
-0.21488299999999999 -0.59439500000000001 0.20691699999999999 
-0.061018799999999998 0.289377 -0.28742299999999998 
0.54072399999999998 0.026080099999999998 -0.0061672100000000002 
-0.66128200000000004 -0.097114800000000001 0.17017399999999999 
0.146151 0.19505 -0.108013 
-0.28594900000000001 -0.0047110099999999999 -0.31587599999999999 
0.095821400000000001 0.161275 0.094053499999999998 
-0.033660500000000003 0.36445300000000003 -0.0615273 
-0.169127 -0.315413 0.20460200000000001 
-0.447017 0.26849600000000001 -0.0217136 
-0.45961600000000002 0.037056699999999998 -0.150726 
0.136877 -0.111346 0.16422800000000001 
-0.090880299999999997 -0.68462000000000001 -0.27497100000000002 
1.1686300000000001 -0.102663 -0.14235300000000001 
0.74856400000000001 0.0576664 0.117047 
-0.20294599999999999 0.092012399999999994 0.23821400000000001 
-0.045948500000000003 0.23049900000000001 0.013039800000000001 
-0.33339200000000002 -0.60029999999999994 -0.19724700000000001 
-0.48478300000000002 -0.12678600000000001 0.00885384 
0.017342 0.23428399999999999 -0.090255699999999994 
0.048123899999999997 0.34594200000000003 0.0131564 
-0.37697700000000001 0.033788800000000001 0.22012999999999999 
-0.35334599999999999 -0.63136199999999998 0.0091828699999999992 
-0.440104 -0.56040400000000001 0.177819 
0.10370600000000001 -0.45364900000000002 -0.16813500000000001 
-0.21260799999999999 -0.21024999999999999 -0.0494917 
0.0032756500000000002 0.39340199999999997 0.22645899999999999 
-0.44120900000000002 0.47283799999999998 -0.144258 
0.26069100000000001 -0.553975 -0.30099700000000001 
-0.667431 0.19470100000000001 -0.074870699999999998 
-0.61092999999999997 0.12712200000000001 0.112488 
-0.58473299999999995 0.35210900000000001 -0.106783 
0.71814699999999998 -0.23199800000000001 -0.30073100000000003 
-0.33055400000000001 0.42134199999999999 -0.0319013 
-0.50311099999999997 0.54386900000000005 0.13598399999999999 
0.46238499999999999 0.15363199999999999 -0.12939700000000001 
0.71576899999999999 -0.066573400000000005 -0.041284399999999999 
0.99631999999999998 0.087211200000000003 -0.0042929800000000001 
-0.56606400000000001 -0.47026400000000002 -0.14635400000000001 
-0.62830699999999995 0.315363 0.082954100000000003 
0.70385299999999995 -0.41152 0.080058199999999996 
-0.4153 0.66357600000000005 -0.0016449500000000001 
-0.12676899999999999 0.120559 -0.313475 
0.67689699999999997 -0.41562500000000002 -0.18657000000000001 
0.48443000000000003 -0.48805700000000002 0.15648999999999999 
-0.0206889 -0.109316 -0.155916 
-0.55035299999999998 0.21623100000000001 -0.0048001500000000004 
0.47077599999999997 0.13314999999999999 0.123297 
0.74524400000000002 -0.197239 0.0990124 
-0.0458842 0.27555400000000002 0.18771199999999999 
0.22887099999999999 0.044685200000000001 -0.14469599999999999 
-0.113633 0.42223899999999998 0.015521099999999999 
0.98630300000000004 -0.00239989 0.15559799999999999 
-0.45336599999999999 -0.067070199999999996 -0.170844 
-0.51412100000000005 -0.051597400000000002 0.27323999999999998 
0.36956499999999998 -0.33584799999999998 -0.0528888 
-0.45206800000000003 0.075008900000000003 -0.30437500000000001 
-0.125192 0.18429899999999999 -0.23095299999999999 
-0.26015500000000003 0.14153299999999999 -0.322629 
0.16680200000000001 -0.420983 0.094182500000000002 
0.40684500000000001 -0.39326299999999997 -0.30865100000000001 
0.329011 -0.53783700000000001 -0.15276999999999999 
-0.16412499999999999 0.228627 -0.28165800000000002 
0.52962100000000001 -0.46733799999999998 0.29442000000000002 
-0.47651700000000002 0.093355300000000002 0.27150400000000002 
0.087761500000000006 0.53392399999999995 -0.0031093900000000001 
0.55072900000000002 0.26612200000000003 -0.0022522599999999999 
0.053377899999999999 0.49593799999999999 0.115352 
0.048474099999999999 0.128805 -0.0835621 
0.091996999999999995 0.35544999999999999 -0.081254999999999994 
0.29042400000000002 0.30771100000000001 0.034960900000000003 
-0.19576499999999999 0.61688100000000001 -0.078572000000000003 
-0.102716 0.50229599999999996 -0.077859800000000007 
-0.29349799999999998 0.58933199999999997 0.0138525 
-0.32354699999999997 0.110013 0.30019499999999999 
-0.047642900000000002 0.557176 0.0220564 
-0.236541 0.096279600000000007 -0.25613000000000002 
-0.10996499999999999 0.46606999999999998 0.068492200000000003 
-0.0253759 0.37488300000000002 0.100178 
-0.096235100000000004 0.127577 0.31875300000000001 
-0.050885800000000002 0.306145 -0.166771 
-0.12335699999999999 0.44939699999999999 -0.0569285 
0.25313799999999997 0.41763 -0.023596599999999999 
0.088155300000000006 0.27671800000000002 -0.120592 
-0.219747 0.024942700000000002 0.32316899999999998 
0.020414999999999999 0.109318 0.070977999999999999 
0.067422599999999999 0.47954599999999997 -0.10621899999999999 
0.089281100000000002 0.34336800000000001 0.084118299999999993 
-0.33057799999999998 0.56805799999999995 -0.069470000000000004 
-0.349304 0.53723399999999999 0.110046 
-0.35828900000000002 -0.770173 0.12948999999999999 
0.107403 -0.619394 0.28528199999999998 
0.70962700000000001 -0.399675 0.30276700000000001 
0.061243899999999997 -0.63709800000000005 0.089199700000000007 
0.065476000000000006 -0.47703000000000001 0.20574799999999999 
-0.27224199999999998 0.473186 0.0043362399999999999 
-0.23766499999999999 0.51151199999999997 -0.087449700000000005 
0.80132599999999998 -0.12573400000000001 -0.11565599999999999 
0.88098500000000002 -0.22695299999999999 0.30953999999999998 
-0.52612599999999998 0.28318700000000002 -0.030983 
-0.0723192 -0.67452299999999998 0.29577100000000001 
-0.25038899999999997 0.062037099999999998 -0.370749 
-0.22955500000000001 0.65373899999999996 -0.0028102800000000001 
0.14504800000000001 -0.48107699999999998 0.30058800000000002 
0.21906200000000001 -0.38832499999999998 0.0151582 
0.17568500000000001 -0.41081699999999999 -0.070755299999999993 
-0.00060681400000000001 -0.54539700000000002 0.28884900000000002 
-0.018967899999999999 -0.50152399999999997 -0.23294999999999999 
0.131829 0.43512400000000001 0.090781799999999996 
-0.401393 -0.039801000000000003 0.28241699999999997 
-0.20511099999999999 0.416352 0.0033533999999999999 
0.070975399999999994 0.35026400000000002 -0.055404700000000001 
-0.034939400000000002 0.14315700000000001 0.082871899999999998 
0.010063300000000001 0.30501 -0.00109209 
0.0046016900000000003 0.42469200000000001 -0.19094900000000001 
-0.10265199999999999 0.33091399999999999 -0.24079300000000001 
-0.14316599999999999 0.161748 0.34368700000000002 
-0.0394527 0.360205 0.025832399999999998 
0.26811600000000002 0.27915600000000002 -0.082612599999999994 
-0.11100400000000001 0.62901200000000002 -0.0064432600000000001 
-0.27387400000000001 -0.75594799999999995 0.19794500000000001 
0.40800999999999998 0.29678500000000002 0.0188655 
1.1588499999999999 -0.22956499999999999 -0.242724 
0.16959399999999999 0.44321899999999997 -0.086823800000000007 
0.203375 0.26026100000000002 -0.104763 
0.97868500000000003 -0.313195 -0.14266799999999999 
0.83191899999999996 -0.36354599999999998 -0.13884099999999999 
-0.27736100000000002 -0.69494699999999998 -0.28060000000000002 
-0.44014999999999999 -0.508606 -0.21792800000000001 
0.13506299999999999 0.30466900000000002 -0.131606 
-0.404082 -0.40046999999999999 -0.20604600000000001 
0.97914500000000004 -0.31241000000000002 0.28964800000000002 
-0.29829299999999997 0.501884 -0.055801299999999998 
0.0040934600000000002 -0.37763099999999999 -0.20213600000000001 
0.2026 -0.244337 -0.0176452 
-0.081693500000000002 -0.57382 -0.30225999999999997 
-0.15670999999999999 -0.56594500000000003 -0.25372600000000001 
-0.087839100000000003 -0.53764800000000001 0.212753 
-0.31372100000000003 -0.63593200000000005 0.12463100000000001 
-0.29080499999999998 -0.67207099999999997 0.217971 
-0.33244299999999999 -0.63064399999999998 -0.12684200000000001 
-0.32400000000000001 -0.59331100000000003 0.19969799999999999 
-0.37977699999999998 -0.70344300000000004 -0.047370700000000002 
-0.34323700000000001 -0.77625999999999995 -0.020450699999999999 
-0.33191300000000001 -0.770787 -0.113829 
-0.39379799999999998 -0.427091 0.20516899999999999 
0.201408 0.00239179 0.154386 
-0.28542299999999998 -0.63142600000000004 -0.22936400000000001 
-0.35491099999999998 -0.72422299999999995 -0.20080000000000001 
-0.278895 -0.62867700000000004 0.18696099999999999 
-0.65390199999999998 0.13059599999999999 -0.086832500000000007 
-0.47941299999999998 0.078267799999999998 -0.056948499999999999 
-0.020710900000000001 0.246144 0.28057199999999999 
-0.61416400000000004 0.033253100000000001 0.240038 
0.96466300000000005 0.025873500000000001 -0.15673100000000001 
0.97588799999999998 -0.116439 0.20726900000000001 
-0.38680999999999999 -0.74084799999999995 -0.099959599999999996 
-0.32791700000000001 -0.65648499999999999 -0.020500899999999999 
0.74258800000000003 -0.379965 -0.31437900000000002 
-0.35275899999999999 -0.69934799999999997 0.12820300000000001 
-0.367539 -0.62789700000000004 -0.068550100000000003 
1.03369 -0.150121 0.27151900000000001 
1.1721600000000001 -0.086456000000000005 0.123222 
-0.0112554 0.092081099999999999 -0.0086475400000000004 
-0.043707200000000002 0.14313500000000001 -0.063769099999999995 
-0.022576800000000001 0.043117099999999998 0.0332316 
0.132773 0.36120600000000003 0.10895100000000001 
0.13152800000000001 -0.60221100000000005 -0.30263800000000002 
-0.37680799999999998 -0.705314 0.034678899999999999 
-0.303784 0.49598999999999999 0.047895 
-0.39022400000000002 -0.75916600000000001 -0.024805399999999998 
-0.34305099999999999 0.50521899999999997 -0.105673 
0.563585 -0.45083099999999998 -0.28116000000000002 
-0.204649 -0.61365400000000003 -0.28974 
-0.22664100000000001 -0.73246900000000004 -0.26605499999999999 
0.28334399999999998 -0.55861099999999997 0.16495899999999999 
1.08419 -0.14460700000000001 -0.25153300000000001 
0.957596 -0.14807000000000001 -0.29087200000000002 
-0.32866099999999998 -0.65049800000000002 -0.071186600000000003 
0.1767 0.486126 -0.011939099999999999 
1.0820000000000001 -0.27485700000000002 -0.23202700000000001 
1.08388 -0.27071899999999999 -0.28018599999999999 
1.0666899999999999 -0.090662400000000004 -0.23424600000000001 
-0.17674999999999999 -0.61462799999999995 0.25817699999999999 
0.0024041800000000001 -0.46361799999999997 0.21323600000000001 
-0.16770199999999999 -0.71891099999999997 0.24782499999999999 
-0.19952600000000001 0.47144799999999998 0.084560300000000005 
0.45542700000000003 -0.29994799999999999 -0.052864599999999998 
-0.39808100000000002 -0.047651199999999998 -0.21304699999999999 
-0.44171500000000002 -0.0213793 -0.33696500000000001 
-0.53566100000000005 0.14974599999999999 0.0124224 
-0.46847800000000001 -0.054141599999999998 0.133909 
-0.33915400000000001 0.34487800000000002 -0.0114 
-0.47378799999999999 -0.24549599999999999 -0.024199499999999999 
0.21692500000000001 -0.46845199999999998 0.31021900000000002 
0.29674200000000001 -0.408974 0.30090600000000001 
1.1114900000000001 -0.22609000000000001 0.25632100000000002 
-0.0038217300000000002 -0.50341100000000005 0.21922 
-0.50766599999999995 0.66339000000000004 0.00027320000000000003 
-0.40254899999999999 -0.51868599999999998 0.20879200000000001 
-0.38338899999999998 -0.78244999999999998 -0.0046326099999999997 
-0.36102499999999998 -0.78312700000000002 0.047666800000000002 
-0.30624499999999999 0.043711399999999997 0.22642699999999999 
-0.084189100000000003 0.306562 0.248638 
0.053150000000000003 -0.47172399999999998 -0.201403 
-0.72936400000000001 0.122623 -0.0121499 
0.17219999999999999 -0.35558200000000001 -0.018174099999999999 
0.29953800000000003 0.30804500000000001 -0.0208641 
0.22814899999999999 0.24801699999999999 0.099199899999999994 
0.34974300000000003 0.30369800000000002 0.020474300000000001 
0.19292799999999999 0.36318699999999998 -0.12545100000000001 
0.293879 0.062061400000000003 0.13348499999999999 
0.37837999999999999 -0.0073210999999999997 0.0168104 
-0.072859800000000002 -0.26947100000000002 0.20361099999999999 
0.20303399999999999 -0.48272799999999999 -0.308033 
0.50851299999999999 -0.33894299999999999 -0.30861100000000002 
0.14416999999999999 -0.0395403 -0.15825900000000001 
-0.28405799999999998 -0.59980699999999998 0.201848 
0.112835 0.20460800000000001 -0.097927500000000001 
0.73533199999999999 -0.16550500000000001 -0.0217334 
0.66651199999999999 -0.22081600000000001 0.0026261800000000001 
0.0701214 0.35031800000000002 0.0484968 
-0.016922900000000001 0.33843800000000002 -0.24373300000000001 
-0.59016000000000002 -0.061854800000000001 0.224747 
-0.69416199999999995 0.038553999999999998 0.12095400000000001 
-0.060758399999999997 0.55293400000000004 -0.035321499999999999 
-0.42360799999999998 0.0274854 -0.201958 
0.205068 -0.445712 0.29501300000000003 
1.0008999999999999 -0.069271399999999997 -0.211063 
1.2210799999999999 -0.22348899999999999 -0.15054799999999999 
1.21902 -0.21951899999999999 0.15240100000000001 
0.80569900000000005 0.184196 -0.0059776899999999999 
-0.478099 0.037322399999999999 -0.0779339 
-0.41415600000000002 -0.0072253300000000003 -0.183084 
-0.63252200000000003 -0.063181500000000002 -0.19390499999999999 
-0.459565 -0.049965799999999998 0.074048799999999998 
-0.44656200000000001 -0.037645199999999997 0.15196999999999999 
-0.074152300000000004 0.53291500000000003 0.070810200000000004 
-0.19820299999999999 0.60738999999999999 0.088783000000000001 
0.0075296900000000003 0.45860099999999998 0.17769299999999999 
-0.29893599999999998 -0.54828200000000005 -0.23998900000000001 
-0.23932700000000001 -0.60566600000000004 -0.25091400000000003 
-0.28643800000000003 -0.64591299999999996 -0.258017 
-0.32657199999999997 -0.64581500000000003 0.064561099999999996 
-0.23771500000000001 -0.65610100000000005 0.25592500000000001 
-0.32608100000000001 0.56236600000000003 0.078299900000000006 
-0.169128 0.40903899999999999 -0.0032931000000000002 
-0.51604499999999998 0.0030568499999999998 0.302873 
-0.019950699999999998 0.331125 0.15589600000000001 
0.16014200000000001 0.40069100000000002 0.105313 
0.051429500000000003 0.342337 -0.0279061 
-0.053153100000000002 0.19275600000000001 -0.040047800000000001 
-0.47400700000000001 0.081778600000000007 0.040621600000000001 
-0.276113 0.61199499999999996 0.0075495900000000001 
-0.36412499999999998 0.63575300000000001 0.0051078199999999999 
0.071649199999999996 -0.50817400000000001 0.288354 
-0.098286600000000002 0.42691200000000001 -0.044451200000000003 
0.32419199999999998 -0.43078300000000003 -0.30762400000000001 
0.29682399999999998 -0.54496199999999995 -0.26654099999999997 
-0.030798499999999999 0.36391699999999999 -0.090591099999999994 
-0.458812 -0.050479299999999998 0.104296 
-0.016643999999999999 0.12756100000000001 -0.064671900000000004 
0.28306999999999999 0.34007799999999999 -0.0135243 
1.02796 -0.118423 -0.268567 
0.82482900000000003 -0.186111 -0.29162199999999999 
1.07274 -0.26959100000000003 0.27776400000000001 
0.78457699999999997 -0.26295299999999999 0.31620399999999999 
0.83991400000000005 -0.36315799999999998 0.0130324 
-0.67388000000000003 -0.21754699999999999 -0.11602800000000001 
-0.65482899999999999 -0.35570600000000002 -0.0988787 
-0.31355100000000002 -0.017050099999999999 0.30670199999999997 
0.80982399999999999 -0.35113899999999998 -0.31785000000000002 
0.46997499999999998 -0.483684 -0.27485700000000002 
-0.381884 0.29614699999999999 -0.011777599999999999 
-0.62517999999999996 0.15484100000000001 0.084109299999999998 
-0.61118799999999995 0.40682499999999999 0.092822100000000005 
1.0276400000000001 -0.146567 -0.28228799999999998 
-0.26549400000000001 -0.58259000000000005 -0.23683000000000001 
-0.34785500000000003 0.020872999999999999 0.21761 
-0.0301517 0.31648500000000002 0.27150200000000002 
0.85742099999999999 0.017782699999999999 0.140624 
-0.20782 0.047301099999999999 -0.32361899999999999 
-0.097431699999999996 0.22881699999999999 -0.31598599999999999 
-0.40767999999999999 0.27034200000000003 -0.0094687899999999995 
-0.10910300000000001 0.18074299999999999 0.22062799999999999 
-0.061839600000000002 0.180782 0.073157299999999995 
0.0489372 -0.365869 0.19503999999999999 
-0.32754699999999998 0.58489000000000002 -0.0417118 
-0.429006 0.54263300000000003 0.13666600000000001 
-0.44053399999999998 -0.0465285 0.29346299999999997 
-0.0016629500000000001 -0.65019000000000005 0.29744300000000001 
0.65681900000000004 -0.0204656 -0.040030700000000002 
0.72293200000000002 -0.092234300000000005 -0.024148699999999999 
1.09518 -0.10589899999999999 0.223436 
0.20649899999999999 -0.39535500000000001 0.049728899999999999 
0.15068300000000001 0.243421 -0.108303 
1.2347999999999999 -0.221329 -0.085469000000000003 
0.109735 0.34140100000000001 0.10545599999999999 
1.1861600000000001 -0.20532600000000001 -0.20699100000000001 
0.0284259 0.55026399999999998 -0.00616345 
-0.67765299999999995 -0.075053499999999995 -0.14327000000000001 
0.20166400000000001 -0.57694699999999999 -0.29480299999999998 
-0.30333100000000002 0.47972399999999998 -0.0065026399999999996 
-0.31911400000000001 0.45242300000000002 -0.032146500000000001 
-0.30564200000000002 0.47270400000000001 0.022733799999999998 
-0.23018 0.443465 0.0041291100000000001 
-0.299458 0.47988599999999998 -0.036712399999999999 
-0.019853300000000001 0.0517402 -0.0042060600000000002 
-0.38505600000000001 -0.72043299999999999 -0.021392100000000001 
-0.56353600000000004 -0.54681800000000003 0.0139886 
0.53545600000000004 0.062293300000000003 0.070946599999999999 
0.58633500000000005 0.12823399999999999 0.11743099999999999 
0.81402300000000005 0.095606300000000005 -0.128248 
0.116923 -0.44314999999999999 0.15346000000000001 
-0.100836 0.14733399999999999 -0.28878799999999999 
-0.51364500000000002 0.118796 0.0247678 
-0.28027000000000002 -0.38031599999999999 0.20760700000000001 
-0.305622 -0.75920200000000004 -0.234736 
0.19591 -0.40753899999999998 0.078853400000000004 
-0.057425400000000001 0.19861100000000001 0.049148600000000001 
-0.23860100000000001 -0.74416499999999997 0.21096599999999999 
-0.32901000000000002 -0.65054599999999996 0.023051499999999999 
-0.34356599999999998 -0.63468599999999997 -0.039213199999999997 
-0.36274000000000001 -0.77979299999999996 -0.13403999999999999 
-0.33922799999999997 0.026205099999999999 -0.23732600000000001 
-0.33956799999999998 0.105477 -0.31581999999999999 
0.28249999999999997 0.29991699999999999 0.062141299999999997 
0.57888200000000001 0.021131899999999999 -0.0216019 
-0.45071499999999998 0.040932999999999997 0.15370200000000001 
-0.353549 -0.78053899999999998 0.019466799999999999 
-0.36475299999999999 -0.70901199999999998 0.100357 
-0.149647 0.17054800000000001 -0.34114 
-0.14125799999999999 -0.58301499999999995 -0.28842600000000002 
-0.169321 -0.62031400000000003 -0.30538199999999999 
-0.010977799999999999 -0.53778700000000002 -0.29903800000000003 
-0.406725 -0.57187699999999997 0.18861700000000001 
0.15756600000000001 -0.42227900000000002 -0.092416200000000004 
0.14886199999999999 -0.43789400000000001 0.13328100000000001 
-0.24065300000000001 0.140344 0.30171599999999998 
0.155501 -0.60365800000000003 0.13802700000000001 
0.20185500000000001 -0.58563799999999999 0.28947800000000001 
0.45004899999999998 -0.38212699999999999 -0.31070900000000001 
-0.47699000000000003 -0.080971100000000004 -0.042042700000000002 
0.494834 -0.33212799999999998 0.306614 
0.51905100000000004 -0.34978999999999999 0.31664500000000001 
0.43743799999999999 -0.353238 0.30248799999999998 
0.88295900000000005 -0.34631800000000001 0.29587000000000002 
-0.32014300000000001 -0.76478400000000002 -0.208756 
1.0168299999999999 -0.0238937 -0.18421399999999999 
-0.22722200000000001 0.55137199999999997 -0.0933866 
-0.744815 -0.044656300000000003 -0.0141394 
0.0090516699999999995 -0.31067699999999998 -0.19625600000000001 
-0.086528800000000003 0.59945700000000002 -0.0116203 
-0.63330299999999995 0.22978899999999999 0.075043600000000002 
-0.68813999999999997 -0.21656400000000001 0.122629 
-0.36219299999999999 -0.45354699999999998 0.21113899999999999 
0.040397799999999998 0.24777299999999999 -0.10238899999999999 
0.093659800000000001 -0.207117 0.17574600000000001 
-0.17321800000000001 0.054520300000000001 0.321351 
-0.62053100000000005 0.30771399999999999 -0.091167999999999999 
-0.69845699999999999 0.34053899999999998 -0.010723099999999999 
0.72102699999999997 -0.19592699999999999 0.042838099999999997 
0.039459300000000003 -0.63653000000000004 -0.29831999999999997 
-0.29075099999999998 -0.25482500000000002 -0.00265241 
-0.30591499999999999 -0.67023500000000003 -0.24665400000000001 
0.33929799999999999 -0.035026599999999998 0.0022438100000000002 
0.26423000000000002 0.062619499999999995 -0.13822400000000001 
0.387243 0.14418600000000001 -0.13520699999999999 
1.2063900000000001 -0.21621199999999999 -0.18693699999999999 
1.1783399999999999 -0.072694400000000006 -0.056272999999999997 
1.18344 -0.061369 0.0011192800000000001 
0.18613399999999999 -0.39746599999999999 -0.044136099999999998 
0.35296499999999997 -0.525169 -0.26604299999999997 
0.22206300000000001 -0.180812 -0.030494400000000001 
0.133684 -0.43662200000000001 -0.13251199999999999 
0.39625300000000002 -0.32409900000000003 -0.051232800000000002 
0.18870600000000001 -0.29020899999999999 -0.026757099999999999 
0.326013 -0.54324399999999995 0.178871 
0.40035799999999999 -0.51481900000000003 0.28407900000000003 
1.20305 -0.094519699999999998 0.047306399999999998 
0.58717900000000001 -0.45280500000000001 0.121853 
-0.105006 -0.211118 -0.171848 
1.08754 0.025872200000000001 -0.014718500000000001 
-0.44113999999999998 -0.27392699999999998 -0.034484300000000002 
-0.171707 -0.58203400000000005 0.21136099999999999 
0.0061355699999999999 0.083749900000000002 0.0487678 
0.041271599999999999 0.13003999999999999 0.083070000000000005 
-0.48712699999999998 0.28547099999999997 -0.039681800000000003 
0.088967900000000003 -0.45926099999999997 0.182425 
-0.31351000000000001 -0.64557299999999995 -0.19239000000000001 
-0.34090900000000002 -0.63181200000000004 -0.097089099999999998 
-0.32127 -0.65276500000000004 0.092772999999999994 
0.063196299999999997 -0.63563199999999997 0.049596399999999999 
0.0792654 -0.628803 -0.01273 
-0.068341799999999994 -0.57069700000000001 0.27388800000000002 
0.63537500000000002 -0.423759 -0.30173699999999998 
-0.338314 0.609846 0.0018950799999999999 
-0.102355 0.50077799999999995 0.077826599999999996 
0.93625700000000001 -0.198987 0.29950500000000002 
-0.43356099999999997 0.021812000000000002 0.33860899999999999 
-0.086678900000000003 -0.53857900000000003 -0.25211 
0.60329900000000003 -0.44012499999999999 -0.201239 
0.067167199999999996 0.15427399999999999 -0.086249400000000004 
-0.38512099999999999 -0.55537099999999995 0.20394300000000001 
-0.542014 -0.51523799999999997 0.136772 
-0.47240700000000002 0.039737799999999997 -0.11018500000000001 
0.47454000000000002 0.024131099999999999 0.019115500000000001 
-0.102627 -0.60250199999999998 0.28676699999999999 
0.0146178 0.50085599999999997 0.131602 
0.10204000000000001 0.46913700000000003 0.094865199999999997 
0.12027500000000001 -0.480049 0.284997 
1.0901099999999999 -0.129856 0.239893 
1.0404500000000001 -0.073401400000000006 0.19672899999999999 
1.1363700000000001 -0.0924624 0.17894399999999999 
0.021261800000000001 0.46437899999999999 -0.14888100000000001 
-0.017218199999999999 0.37961800000000001 -0.23008200000000001 
-0.33325500000000002 -0.77506600000000003 0.154836 
-0.297377 -0.76387499999999997 0.17782999999999999 
-0.18963099999999999 -0.25174099999999999 -0.16211300000000001 
0.40643800000000002 0.01257 0.027268500000000001 
0.26988000000000001 0.39065800000000001 -0.019846200000000001 
0.27034799999999998 -0.56045800000000001 0.283217 
-0.37700400000000001 -0.74666299999999997 -0.147429 
-0.15323899999999999 0.142625 -0.34884900000000002 
0.24008599999999999 0.25851499999999999 -0.100013 
0.26277499999999998 0.28916199999999997 0.080874600000000005 
-0.54326099999999999 0.25502399999999997 -0.017513299999999999 
-0.56579800000000002 0.100037 0.187364 
-0.51807899999999996 0.091661000000000006 0.26120500000000002 
-0.034618900000000001 0.36591299999999999 0.054209899999999998 
-0.040455999999999999 0.36112499999999997 -0.020835300000000001 
-0.148483 -0.56411800000000001 0.210509 
-0.24971599999999999 -0.60763 0.20405699999999999 
-0.169271 0.11856 0.234429 
-0.0053944800000000001 0.126306 0.0771699 
-0.00056227700000000002 0.099685899999999994 -0.048429100000000003 
0.16766600000000001 0.19631000000000001 0.106435 
-0.12868299999999999 0.240784 0.27003700000000003 
-0.066314499999999998 0.243141 0.20266000000000001 
-0.10600800000000001 -0.071992100000000003 -0.0030157700000000001 
-0.069217000000000001 0.16116900000000001 0.30962899999999999 
-0.21151500000000001 0.099565699999999993 0.35969400000000001 
0.642899 0.240673 -0.0075756499999999997 
0.90868800000000005 0.13503999999999999 -0.00572852 
0.366504 -0.387268 0.30793599999999999 
0.40698699999999999 -0.51488900000000004 0.173621 
-0.037133699999999999 0.027692100000000001 -0.0058823199999999999 
0.382129 -0.51828099999999999 -0.173182 
0.31376500000000002 0.30684299999999998 0.0092708200000000008 
0.134935 -0.60881600000000002 0.28373199999999998 
0.0195233 -0.52799099999999999 -0.30077100000000001 
0.202045 -0.58393799999999996 -0.0933832 
-0.068225099999999997 0.56995399999999996 -0.0110987 
-0.021180399999999999 0.26588899999999999 0.0047759600000000001 
0.23696900000000001 -0.57490699999999995 0.15970100000000001 
-0.365089 -0.52745699999999995 -0.23345099999999999 
-0.29818099999999997 -0.59870999999999996 -0.21582799999999999 
-0.33263500000000001 -0.61663000000000001 -0.16583200000000001 
-0.211036 -0.59034900000000001 -0.25401299999999999 
0.36914799999999998 -0.413657 -0.30859599999999998 
-0.21096400000000001 -0.641486 -0.30101899999999998 
-0.72251200000000004 0.19508 -0.0048578299999999996 
1.2484999999999999 -0.21660599999999999 0.0026745800000000002 
1.2487699999999999 -0.214555 0.062234600000000001 
1.2424500000000001 -0.218169 -0.055604199999999999 
-0.47573300000000002 -0.100593 0.0212158 
-0.46780899999999997 -0.055655700000000002 0.013088300000000001 
-0.31645099999999998 0.58914900000000003 -0.0076878600000000004 
-0.38431700000000002 0.53781500000000004 0.125723 
-0.10830099999999999 0.19251499999999999 -0.32763199999999998 
-0.085801299999999997 0.237652 -0.20780100000000001 
0.050212199999999999 0.45967999999999998 -0.12928400000000001 
-0.017907300000000001 0.55304799999999998 -0.0074168899999999998 
-0.109088 0.44253100000000001 0.0512957 
-0.064500299999999997 0.37845600000000001 -0.00801872 
-0.47233199999999997 -0.54932599999999998 0.16739299999999999 
1.05758 -0.14552999999999999 -0.26600600000000002 
1.1459900000000001 -0.14300599999999999 -0.20676600000000001 
-0.00163138 -0.652111 -0.29604399999999997 
-0.47412900000000002 -0.497035 -0.20230600000000001 
0.84577400000000003 -0.34565099999999999 -0.31350699999999998 
0.70096099999999995 -0.396509 -0.30860700000000002 
0.76186299999999996 -0.126221 -0.069826600000000003 
-0.48505300000000001 -0.091242000000000004 -0.068895799999999993 
-0.14576900000000001 0.13650000000000001 0.23120399999999999 
-0.092612 -0.55733500000000002 -0.28080699999999997 
0.23268 0.026247800000000002 0.147337 
0.16975999999999999 0.33000299999999999 -0.13428999999999999 
-0.038888600000000002 0.332787 -0.26249 
-0.33042899999999997 0.37464399999999998 -0.0180839 
-0.057714000000000001 0.16655400000000001 -0.052313800000000001 
0.70148500000000003 0.077364199999999994 0.109754 
-0.33985599999999999 -0.77394499999999999 -0.078007199999999999 
-0.37965700000000002 -0.70805399999999996 0.0054353300000000004 
-0.37243199999999999 -0.70503000000000005 0.064281400000000002 
0.56289800000000001 -0.45455299999999998 0.29871500000000001 
0.85546999999999995 -0.105072 -0.153859 
-0.122186 -0.59186000000000005 0.26566400000000001 
1.0549500000000001 -0.28465200000000002 -0.23772299999999999 
1.1232 -0.257463 -0.261741 
1.0158700000000001 -0.29821599999999998 -0.253077 
0.169096 -0.48659599999999997 -0.30621300000000001 
0.043550400000000003 -0.51132999999999995 -0.29575200000000001 
-0.054955299999999999 -0.51544000000000001 -0.239842 
1.24403 -0.21473700000000001 0.091301400000000005 
1.2336499999999999 -0.216032 0.119603 
-0.33973799999999998 0.018329000000000002 -0.36587199999999998 
-0.50777499999999998 0.42885600000000001 -0.13747899999999999 
-0.673844 -0.28128599999999998 -0.101423 
0.79662900000000003 -0.18588099999999999 0.15597 
-0.37384299999999998 0.096696199999999996 -0.31473200000000001 
0.91462900000000003 -0.144201 0.20325099999999999 
-0.70072800000000002 -0.072367699999999993 -0.113194 
-0.57779899999999995 -0.048559100000000001 -0.25115100000000001 
0.439247 -0.49475799999999998 -0.26632600000000001 
-0.63277899999999998 0.26319599999999999 0.076321 
1.0477099999999999 -0.28782400000000002 0.27984500000000001 
-0.446239 0.032355200000000001 -0.181426 
-0.0080259300000000006 0.071977399999999997 0.020045199999999999 
0.74407599999999996 0.111107 -0.12889400000000001 
0.88105900000000004 0.072962299999999994 -0.13359799999999999 
-0.1678 -0.71196300000000001 -0.27560499999999999 
-0.64707800000000004 0.037683300000000003 0.19203899999999999 
-0.59031999999999996 0.024265499999999999 0.26030500000000001 
0.044789299999999997 -0.64054699999999998 0.28742400000000001 
-0.442189 0.094012899999999996 0.27957399999999999 
0.63374900000000001 -0.0025395700000000001 -0.039655299999999997 
-0.60125399999999996 -0.45269599999999999 0.123996 
-0.61715299999999995 -0.49719099999999999 0.00179334 
-0.486398 0.0046283499999999998 0.31616100000000003 
-0.38793100000000003 -0.73489300000000002 -0.070955900000000002 
-0.062718999999999997 0.25972899999999999 0.30141099999999998 
-0.339505 -0.77222599999999997 -0.17411499999999999 
0.022142100000000001 0.111181 -0.070341299999999995 
-0.64988100000000004 -0.090219199999999999 -0.162519 
-0.40745100000000001 0.48750300000000002 -0.14091999999999999 
-0.127802 0.15904599999999999 0.22639000000000001 
0.066941700000000007 0.144728 0.088949799999999996 
-0.068921200000000002 0.233374 0.31232599999999999 
1.22641 -0.22373599999999999 -0.116467 
0.35183999999999999 0.12098399999999999 -0.135183 
-0.56495799999999996 -0.056390599999999999 0.244584 
-0.64381299999999997 -0.080462400000000003 0.18792500000000001 
0.30516799999999999 0.092980499999999994 -0.13647899999999999 
-0.200075 0.50042299999999995 0.092261599999999999 
0.237146 -0.43696400000000002 0.30136400000000002 
0.168956 -0.46466499999999999 0.29656300000000002 
-0.537327 -0.479854 -0.16752300000000001 
-0.248778 0.0105302 0.321131 
-0.12200800000000001 0.101921 0.32598700000000003 
0.72432300000000005 -0.202598 0.074044600000000002 
0.69228699999999999 -0.208511 0.0086151800000000001 
0.71737700000000004 -0.19298299999999999 0.0073967800000000004 
-0.48763600000000001 -0.21313799999999999 -0.0123032 
-0.481991 0.087413699999999997 -0.0226172 
-0.32377699999999998 -0.39645900000000001 -0.220167 
-0.153783 0.093692999999999999 -0.32044 
-0.54335299999999997 0.65004099999999998 -0.000315233 
-0.20793800000000001 0.161332 0.29437000000000002 
-0.12156 -0.55274500000000004 -0.25224200000000002 
-0.32248599999999999 0.57985500000000001 0.054951699999999999 
-0.30534 0.52384699999999995 0.064467300000000005 
0.64881100000000003 0.106574 0.112446 
0.50862799999999997 0.14208799999999999 0.124097 
-0.0506577 0.212506 -0.018302700000000002 
0.16864899999999999 -0.58877299999999999 -0.30086499999999999 
0.50694899999999998 0.027743199999999999 0.0095135600000000008 
0.61805600000000005 0.0029137500000000001 -0.0156851 
0.26926600000000001 -0.55960299999999996 -0.12873699999999999 
1.0228900000000001 0.0698907 -0.0136068 
1.1182399999999999 -0.098552899999999999 0.20103299999999999 
0.237201 -0.148005 -0.030391999999999999 
0.60897000000000001 -0.43640200000000001 0.29949700000000001 
0.74614400000000003 -0.28012199999999998 0.31776199999999999 
0.68307399999999996 -0.29803099999999999 0.31778899999999999 
1.1711800000000001 -0.087348700000000001 -0.115868 
0.94114399999999998 0.045467599999999997 -0.14480100000000001 
0.56740000000000002 -0.30231000000000002 -0.30689699999999998 
0.0027590399999999999 -0.33949800000000002 -0.200185 
0.37235400000000002 0.100881 0.12528700000000001 
0.74027299999999996 -0.110336 -0.044061200000000002 
0.84714 -0.244394 0.31403599999999998 
0.46684599999999998 -0.33428400000000003 0.29861799999999999 
0.93515599999999999 -0.32762999999999998 0.29180299999999998 
-0.35852499999999998 0.035305099999999999 0.35675099999999998 
0.98676600000000003 -0.14635200000000001 -0.29030699999999998 
-0.143065 -0.71040000000000003 0.26319500000000001 
-0.37322300000000003 -0.77889900000000001 0.073885000000000006 
0.59285699999999997 -0.440579 -0.28445599999999999 
-0.097822300000000001 -0.69034099999999998 0.283688 
0.041408399999999998 -0.52885300000000002 0.293126 
-0.33209899999999998 -0.26680500000000001 0.010901599999999999 
-0.059721200000000002 -0.16107099999999999 -0.16369400000000001 
0.47414299999999998 -0.4889 0.28745799999999999 
-0.099304600000000007 0.28129599999999999 0.25441599999999998 
-0.43426599999999999 0.035136800000000003 0.17922199999999999 
-0.41040100000000002 0.034506200000000001 0.207038 
-0.48791899999999999 -0.049193599999999997 0.28675 
0.88797099999999995 -0.16658200000000001 -0.29118899999999998 
0.67360600000000004 -0.250164 -0.30291699999999999 
0.21384 -0.20974499999999999 -0.016890200000000001 
-0.00070385100000000002 0.20910000000000001 -0.087306999999999996 
-0.0661664 0.26233099999999998 -0.29788799999999999 
-0.33985500000000002 -0.69069499999999995 0.15406 
-0.30188500000000001 -0.64509300000000003 0.157806 
-0.36341699999999999 -0.582789 0.19564799999999999 
-0.39476600000000001 -0.49005599999999999 0.21048800000000001 
1.0564800000000001 -0.066461599999999996 -0.215145 
-0.267766 -0.66514099999999998 0.23444200000000001 
0.76717900000000006 -0.19226399999999999 0.127835 
1.0007200000000001 -0.101205 0.205344 
-0.196768 0.66148099999999999 -0.0047992 
-0.60838499999999995 0.59327700000000005 0.0058928100000000001 
