3
0.06932239979505539	-0.29180800914764404	0.37962400913238525
0.5816799998283386	0.1967190057039261	0.19549499452114105
-0.5285450220108032	-0.5231829881668091	-0.33854201436042786
-0.31426799297332764	0.07521159946918488	0.07899849861860275
0.20607900619506836	0.49138200283050537	-0.4318560063838959
0.008769400417804718	-0.3462179899215698	-0.2589380145072937
-0.12526200711727142	0.7698730230331421	-0.15830999612808228
-0.4401949942111969	-0.7744550108909607	-0.2951340079307556
0.29684001207351685	-0.009209999814629555	-0.24461999535560608
0.2466759979724884	-0.7400820255279541	-0.10238300263881683
-0.5909159779548645	0.49784401059150696	-0.08765459805727005
0.1690559983253479	0.3513450026512146	-0.45981699228286743
0.5798419713973999	0.2789919972419739	-0.07573220133781433
-0.4714129865169525	-0.687853991985321	-0.3217799961566925
0.08258499950170517	-0.6312639713287354	0.34262099862098694
0.4209110140800476	0.9799749851226807	0.011461099609732628
-0.06497690081596375	-0.28610000014305115	-0.05830790102481842
-0.6177849769592285	0.5839800238609314	0.001388799981214106
0.15212400257587433	0.27043598890304565	-0.4573409855365753
0.3309989869594574	-0.30200299620628357	0.2745729982852936
-0.34402701258659363	0.6537879705429077	0.08582709729671478
0.588138997554779	0.8924769759178162	0.0694672018289566
-0.5383120179176331	-0.614300012588501	-0.0018621999770402908
0.2956230044364929	0.8009529709815979	0.27702200412750244
-0.34028300642967224	0.3090989887714386	0.2970690131187439
-0.047835901379585266	0.21295100450515747	-0.4241639971733093
0.6780700087547302	0.8836089968681335	0.011338300071656704
0.28595399856567383	-0.7928749918937683	0.047033701092004776
0.18567399680614471	-0.7409030199050903	-0.14245299994945526
0.2998340129852295	0.5453289747238159	0.4760949909687042
-0.09058109670877457	0.17820799350738525	0.5624909996986389
0.23971199989318848	-0.9239869713783264	0.0813841000199318
-0.5447220206260681	-0.5476610064506531	-0.2611449956893921
-0.16267399489879608	-0.2800990045070648	-0.33550000190734863
0.33065900206565857	-0.2060209959745407	0.08513259887695312
0.08889409899711609	-0.5181549787521362	-0.2962760031223297
-0.1897059977054596	-0.0478799007833004	0.23308999836444855
0.17970600724220276	0.20575499534606934	-0.4355289936065674
0.17001299560070038	0.22440199553966522	0.6389129757881165
0.0400112010538578	0.46905601024627686	-0.4551970064640045
-0.008842100389301777	0.8104090094566345	-0.18097999691963196
-0.31310099363327026	0.4068570137023926	0.34692099690437317
0.2087640017271042	-0.15412700176239014	-0.06641030311584473
-0.5637509822845459	0.5493419766426086	-0.150751993060112
0.33156800270080566	0.585873007774353	-0.33720698952674866
0.10049399733543396	-0.9503660202026367	0.019245300441980362
-0.44870200753211975	0.1871190071105957	-0.3154129981994629
0.4421350061893463	0.17611199617385864	-0.2774209976196289
0.11435399949550629	0.7932729721069336	-0.24403099715709686
-0.0800141990184784	0.2515060007572174	0.5514860153198242
-0.5272120237350464	0.6422060132026672	0.01700579933822155
-0.5424240231513977	0.7163289785385132	-0.11133699864149094
-0.6215090155601501	0.6593559980392456	-0.030268700793385506
0.14910100400447845	-0.5850200057029724	0.36036399006843567
0.22625799477100372	0.8302249908447266	0.2707130014896393
-0.297544002532959	0.39559298753738403	-0.31668299436569214
0.5446919798851013	0.4518190026283264	-0.15634800493717194
-0.11494600027799606	-0.07734780013561249	-0.06360329687595367
-0.39399099349975586	0.4824399948120117	0.04604180157184601
-0.03862600028514862	-0.16140300035476685	0.0760158970952034
-0.5066249966621399	0.7618870139122009	-0.05715459957718849
0.07565420120954514	0.4162040054798126	0.554980993270874
-0.4342769980430603	-0.28570398688316345	-0.10454399883747101
-0.5340039730072021	-0.45256200432777405	-0.38457000255584717
0.16453999280929565	0.7010430097579956	-0.33615100383758545
-0.1497880071401596	0.8035539984703064	0.08316270262002945
-0.505715012550354	0.35455501079559326	0.07100789994001389
0.544543981552124	0.200887992978096	-0.13979899883270264
0.5945019721984863	0.2250629961490631	0.11284799873828888
0.1880050003528595	-0.36065199971199036	-0.10257700085639954
0.1560710072517395	-0.7503730058670044	0.23403400182724
0.313977986574173	0.8859170079231262	-0.044937100261449814
0.6486350297927856	0.6834080219268799	-0.06214680150151253
0.5550220012664795	0.3757520020008087	0.3045099973678589
0.25533100962638855	-0.8062859773635864	-0.14833299815654755
-0.09427479654550552	0.10200600326061249	0.5481680035591125
-0.148375004529953	-0.08460529893636703	0.17867699265480042
0.16307500004768372	-0.9483270049095154	0.056090500205755234
0.4282189905643463	0.4205619990825653	-0.3239060044288635
0.3507849872112274	-0.29786598682403564	0.07751079648733139
0.33449000120162964	0.6483569741249084	-0.29701098799705505
0.4178059995174408	0.72052001953125	0.23109999299049377
-0.12270200252532959	0.8147640228271484	0.005124500021338463
0.07450670003890991	-0.45171600580215454	-0.25816699862480164
0.28174498677253723	0.8454779982566833	0.18593500554561615
-0.01708810031414032	-0.8782240152359009	-0.3443329930305481
-0.459773987531662	0.019541800022125244	-0.26900699734687805
-0.19462299346923828	0.7300969958305359	-0.16232100129127502
0.23912200331687927	-0.7078379988670349	0.1550160050392151
0.6507499814033508	0.8409799933433533	0.07006160169839859
-0.528984010219574	0.3383919894695282	0.004043799825012684
0.1366100013256073	0.8642439842224121	-0.06456509977579117
-0.24666999280452728	0.7095100283622742	0.20779100060462952
0.050011999905109406	-0.9510599970817566	0.2451069951057434
0.2510389983654022	0.49442800879478455	0.49422401189804077
-0.3764039874076843	-0.10125900059938431	-0.32312700152397156
0.4376789927482605	0.08935269713401794	0.43111300468444824
-0.07425960153341293	-0.295758992433548	0.07796510308980942
0.5454000234603882	0.45293501019477844	0.3023679852485657
0.29043298959732056	-0.6126800179481506	-0.006291999947279692
-0.1970279961824417	0.07523970305919647	0.4169659912586212
-0.4474340081214905	0.2839230000972748	-0.16913199424743652
0.5447829961776733	0.12515200674533844	0.24568399786949158
0.46912500262260437	0.678409993648529	0.18869900703430176
-0.04524480178952217	-0.11888899654150009	-0.04100869968533516
-0.07526519894599915	0.8383640050888062	0.08597250282764435
0.374426007270813	0.891281008720398	-0.11039400100708008
-0.42652198672294617	0.08337750285863876	-0.2605319917201996
-0.06749659776687622	0.7151619791984558	0.40643399953842163
0.5913810133934021	0.38136500120162964	-0.0186017993837595
0.15528200566768646	0.15438200533390045	0.6238870024681091
0.26556798815727234	-0.8821229934692383	-0.1789740025997162
0.1196179986000061	0.7200499773025513	0.439859002828598
-0.44487500190734863	-0.85760098695755	-0.12126100063323975
-0.18521800637245178	-0.941070020198822	-0.34286001324653625
-0.05133429914712906	-0.8291559815406799	-0.38434699177742004
-0.5239409804344177	0.6212249994277954	-0.177046000957489
0.004008700139820576	-0.3015350103378296	-0.07399330288171768
-0.36203300952911377	0.1913450062274933	0.16887399554252625
-0.275734007358551	0.025010500103235245	0.1161239966750145
-0.40099599957466125	-0.3012300133705139	-0.01561690028756857
-0.04014449939131737	0.7700530290603638	-0.23964199423789978
-0.028295699506998062	-0.25916698575019836	0.15457700192928314
-0.3122960031032562	0.08295539766550064	0.1589069962501526
0.3591890037059784	0.8347780108451843	-0.15820099413394928
-0.35589799284935	0.5765299797058105	0.08498010039329529
-0.32277700304985046	0.6270620226860046	0.15577200055122375
-0.21849800646305084	0.277987003326416	-0.36125099658966064
-0.10119999945163727	0.0062176999635994434	0.47161900997161865
-0.5123839974403381	-0.6012539863586426	-0.3130730092525482
-0.0414464995265007	0.7916929721832275	0.31951001286506653
-0.032290201634168625	-0.36458998918533325	-0.3695879876613617
-0.41765400767326355	0.05004090070724487	-0.35506701469421387
0.35183900594711304	0.5052980184555054	-0.3600980043411255
-0.09736429899930954	-0.8864859938621521	-0.3690420091152191
-0.17149600386619568	-0.9520999789237976	-0.06625159829854965
0.5330250263214111	0.7461569905281067	-0.1757660061120987
0.2494029998779297	0.18092800676822662	0.6151750087738037
0.6239879727363586	0.9746900200843811	-0.03130149841308594
0.09438119828701019	-0.282056987285614	-0.06298229843378067
-0.0017105999868363142	0.7594900131225586	0.38307398557662964
-0.03026209957897663	-0.7624970078468323	-0.41926899552345276
0.594012975692749	0.26919201016426086	0.1879040002822876
0.06587939709424973	0.3529910147190094	-0.46697500348091125
0.013263399712741375	-0.5371440052986145	-0.44783899188041687
-0.4281280040740967	-0.226514995098114	-0.47749900817871094
-0.19517900049686432	-0.7284029722213745	0.2074580043554306
-0.1499820053577423	0.523501992225647	0.46970298886299133
0.29638299345970154	0.8494179844856262	-0.11431299895048141
0.5123999714851379	0.040457699447870255	0.07083559781312943
0.33756500482559204	-0.5628129839897156	0.07951880246400833
0.6532869935035706	0.6293820142745972	-0.007740499917417765
0.35260099172592163	0.6846699714660645	0.3910279870033264
0.10349100083112717	-0.9504839777946472	-0.055726200342178345
0.6537299752235413	0.6289190053939819	0.07596760243177414
-0.28916600346565247	0.6425219774246216	0.2349500060081482
-0.2646560072898865	0.5924180150032043	-0.269432008266449
-0.08963610231876373	-0.5826290249824524	0.2771109938621521
0.510496973991394	0.0457254983484745	0.19189999997615814
0.18308399617671967	-0.03695350140333176	0.5021510124206543
-0.26172900199890137	0.3640210032463074	0.3827019929885864
-0.10130299627780914	-0.2914539873600006	-0.2991830110549927
0.2953230142593384	0.8834329843521118	0.09217289835214615
-0.08964739739894867	-0.05617490038275719	-0.14955000579357147
-0.18251100182533264	0.6433290243148804	-0.29464998841285706
-0.1179720014333725	-0.7270900011062622	-0.47709301114082336
0.5569689869880676	0.29475298523902893	-0.14361199736595154
-0.5566220283508301	-0.5538570284843445	-0.17452600598335266
0.0034932999406009912	-0.8584359884262085	0.3808540105819702
-0.2597450017929077	-0.29169100522994995	0.01740019954741001
0.49686399102211	0.23281699419021606	-0.23259900510311127
0.3604089915752411	-0.10500899702310562	0.07272449880838394
0.29957300424575806	0.7974219918251038	-0.18667800724506378
0.4369949996471405	0.9871249794960022	0.08722250163555145
-0.09593989700078964	-0.3993940055370331	0.23176799714565277
-0.3663879930973053	0.530485987663269	-0.26706498861312866
0.02300249971449375	-0.38916701078414917	-0.32083800435066223
0.007985100150108337	0.8630989789962769	0.09779369831085205
-0.06859000027179718	0.8131800293922424	0.2523280084133148
0.23476499319076538	0.8692610263824463	0.13291500508785248
0.5289130210876465	0.1467979997396469	0.32191500067710876
-0.05497970059514046	-0.5111439824104309	-0.48927098512649536
0.5650240182876587	0.19704000651836395	0.2673270106315613
-0.5482460260391235	0.4631190001964569	-0.15366999804973602
-0.5249750018119812	-0.6957589983940125	-0.036538999527692795
-0.08448349684476852	0.27598801255226135	-0.4281949996948242
-0.11903700232505798	0.2282170057296753	0.48445001244544983
-0.04379519820213318	-0.2978909909725189	-0.13358600437641144
-0.1593250036239624	-0.4328950047492981	0.18851299583911896
-0.44891300797462463	0.40723299980163574	0.05139689892530441
-0.3553279936313629	0.131740003824234	-0.037310801446437836
0.3124859929084778	-0.14013999700546265	0.007216900121420622
-0.02898699976503849	-0.4436819851398468	-0.44369998574256897
-0.28158900141716003	-0.48301899433135986	-0.5156059861183167
0.5029439926147461	0.3265550136566162	0.39421701431274414
-0.3646659851074219	0.4175119996070862	0.25234898924827576
0.5850440263748169	0.1977120041847229	0.017191100865602493
0.0738821029663086	0.2883729934692383	0.6605520248413086
-0.2984200119972229	-0.8435649871826172	-0.39423200488090515
0.5960230231285095	0.30910900235176086	-0.0009887999622151256
0.3700770139694214	-0.08235260099172592	0.003639000002294779
0.4469200074672699	0.740369975566864	0.11127699911594391
-0.005409799981862307	0.8488320112228394	0.1926479935646057
-0.24410299956798553	0.4417400062084198	-0.34367600083351135
-0.3766059875488281	0.4442639946937561	0.1848679929971695
0.3606620132923126	0.9303900003433228	-0.00036199999158270657
-0.06302610039710999	-0.8251979947090149	0.3440369963645935
-0.2831510007381439	0.043467700481414795	0.008225400000810623
0.24822400510311127	-0.041966699063777924	0.45232200622558594
0.2488279938697815	0.3150619864463806	-0.4344019889831543
0.36465200781822205	-0.3093869984149933	0.15529799461364746
0.41405999660491943	-0.02266719937324524	0.28131601214408875
-0.48293599486351013	0.6994820237159729	-0.14817099273204803
-0.25369900465011597	0.027911599725484848	0.2746190130710602
-0.44486498832702637	-0.8523679971694946	-0.04486729949712753
0.37088799476623535	0.0904695987701416	0.5036699771881104
-0.11818700283765793	0.6187250018119812	-0.3547010123729706
0.4959540069103241	0.4646889865398407	-0.2366500049829483
-0.13552400469779968	-0.7611899971961975	0.23970000445842743
0.6758599877357483	0.7268829941749573	0.011406700126826763
0.559777021408081	1.0102699995040894	-0.03425399959087372
0.09382399916648865	0.8300899863243103	-0.1764480024576187
-0.48102399706840515	-0.791396975517273	-0.08377529680728912
-0.4983200132846832	0.5142850279808044	-0.21751399338245392
-0.017239199951291084	-0.24290600419044495	0.06569070369005203
0.2639940083026886	-0.1963610053062439	-0.0204865001142025
0.14858399331569672	-0.8681550025939941	0.2176080048084259
0.16832399368286133	-0.469666987657547	0.4119200110435486
-0.5499730110168457	-0.11640600115060806	-0.3380669951438904
0.5482479929924011	0.10000099986791611	0.031435899436473846
0.10967999696731567	-0.7165219783782959	0.2809560000896454
0.012345599941909313	-0.7955330014228821	-0.3524799942970276
-0.28326600790023804	-0.2371699959039688	-0.2536509931087494
0.04046269878745079	-0.9069129824638367	-0.013653500005602837
0.06650300323963165	-0.5414280295372009	-0.38673800230026245
-0.44141700863838196	-0.2961980104446411	-0.5080559849739075
-0.2390429973602295	-0.41538500785827637	-0.5005900263786316
-0.01523939985781908	-0.34675800800323486	0.3220140039920807
0.24758799374103546	0.2348710000514984	-0.4235830008983612
0.11627999693155289	-0.753948986530304	-0.17845000326633453
-0.2486100047826767	0.28317099809646606	0.37232398986816406
-0.5555660128593445	-0.4613499939441681	-0.3037460148334503
0.4659169912338257	0.04142719879746437	-0.11703100055456161
0.29722699522972107	-0.20118500292301178	0.2710919976234436
0.07307259738445282	0.8703550100326538	0.13281400501728058
0.5934479832649231	0.5331439971923828	0.16488899290561676
-0.09088490158319473	0.8083099722862244	-0.09275110065937042
0.2462030053138733	-0.3457370102405548	0.38864099979400635
0.06570590287446976	0.8740869760513306	0.039180099964141846
-0.4377250075340271	-0.12386299669742584	-0.28415098786354065
-0.26726099848747253	0.0544729009270668	-0.13656499981880188
-0.4416469931602478	0.24460799992084503	-0.0790472999215126
-0.45183899998664856	-0.8240730166435242	-0.19631199538707733
-0.32543501257896423	-0.9067010283470154	0.2087710052728653
0.5815039873123169	0.5486149787902832	-0.10012900084257126
0.48804301023483276	0.3662559986114502	-0.2648159861564636
-0.4702169895172119	-0.005366699770092964	-0.3649759888648987
0.46740400791168213	0.1272840052843094	-0.2198520004749298
0.14069299399852753	-0.5484600067138672	-0.18455199897289276
-0.4676649868488312	0.5064449906349182	0.02020220085978508
-0.16495999693870544	0.47610700130462646	-0.3851180076599121
-0.5697360038757324	-0.3923470079898834	-0.31960800290107727
0.2468239963054657	-0.32769298553466797	-0.06122500076889992
-0.0887816995382309	0.7238510251045227	-0.2749820053577423
0.5076689720153809	0.12147700041532516	-0.14937199652194977
0.04218890145421028	0.37478500604629517	0.6170439720153809
-0.5220800042152405	0.7256309986114502	0.018119100481271744
-0.20831599831581116	0.007148699834942818	-0.12892000377178192
0.040084801614284515	-0.9502249956130981	0.15578900277614594
0.5961970090866089	0.45009100437164307	0.008755399845540524
-0.31310901045799255	-0.9442560076713562	0.032426800578832626
0.3139379918575287	-0.2923550009727478	0.010940499603748322
-0.3894850015640259	0.4281350076198578	0.10324899852275848
0.5195580124855042	0.9489799737930298	-0.10252600163221359
-0.26587700843811035	0.23356199264526367	-0.323978990316391
-0.34222498536109924	-0.9159340262413025	0.12108399718999863
-0.4148930013179779	-0.8531200289726257	-0.25855201482772827
-0.44690001010894775	0.6693990230560303	0.028477799147367477
-0.10230500251054764	-0.44738999009132385	-0.4872100055217743
-0.5404539704322815	-0.6275569796562195	-0.17654499411582947
0.3262520134449005	-0.37724798917770386	-0.009259100072085857
0.3454430103302002	-0.039667900651693344	-0.14882400631904602
0.06191200017929077	-0.7693899869918823	-0.3037869930267334
-0.2100359946489334	-0.8572019934654236	-0.41035300493240356
-0.02003839984536171	-0.1464879959821701	0.25637999176979065
-0.36622801423072815	-0.7766029834747314	-0.386355996131897
-0.48997700214385986	-0.35502099990844727	-0.49553900957107544
0.18877699971199036	0.46198898553848267	0.5181779861450195
0.37364301085472107	0.3019999861717224	0.4666059911251068
0.11647800356149673	-0.33852601051330566	-0.11374399811029434
-0.10104399919509888	0.10382899641990662	-0.34444600343704224
-0.11095000058412552	-0.64239501953125	0.24175600707530975
0.607204020023346	0.6190509796142578	-0.10109099745750427
0.6575199961662292	0.9509860277175903	0.041735101491212845
-0.34264400601387024	0.2011830061674118	-0.33426201343536377
0.4280569851398468	-0.04553399980068207	0.05242199823260307
0.27452200651168823	-0.7116469740867615	0.041558198630809784
0.5818039774894714	0.685778021812439	-0.14282900094985962
-0.038158200681209564	0.4767319858074188	-0.4387170076370239
0.506076991558075	0.5512269735336304	-0.19104300439357758
-0.12259799987077713	-0.5692920088768005	-0.5170279741287231
0.057338301092386246	0.041482098400592804	-0.3490050137042999
0.09684830158948898	-0.4952380061149597	0.4076699912548065
0.1800059974193573	-0.9501760005950928	-0.06587430089712143
0.026272699236869812	0.4710640013217926	0.5352309942245483
-0.5475819706916809	-0.6253319978713989	-0.08157990127801895
0.539804995059967	0.3685440123081207	-0.18188300728797913
0.08760929852724075	-0.8480460047721863	-0.30717700719833374
-0.27858400344848633	-0.26600098609924316	-0.3377450108528137
0.6053150296211243	0.5120540261268616	-0.027077000588178635
-0.55827397108078	-0.14259199798107147	-0.40772899985313416
-0.027150200679898262	-0.9451379776000977	0.09450589865446091
0.5647990107536316	0.13079999387264252	0.16081899404525757
0.0872310996055603	-0.6909589767456055	-0.32399100065231323
0.2376669943332672	-0.5754609704017639	-0.09744250029325485
0.03405360132455826	-0.030075199902057648	-0.26520800590515137
-0.24324999749660492	0.0878458023071289	0.3595530092716217
-0.28460898995399475	0.3074139952659607	-0.322486013174057
-0.22389499843120575	0.0437145009636879	-0.1982720047235489
0.1634799987077713	0.3760420083999634	0.5726550221443176
-0.25013700127601624	-0.9409869909286499	-0.030931999906897545
-0.3614479899406433	0.5265079736709595	0.15410199761390686
0.2117680013179779	-0.6642360091209412	-0.11413399875164032
0.42207399010658264	0.031447701156139374	0.3810740113258362
-0.05257070064544678	0.657105028629303	-0.35888800024986267
0.0870727002620697	-0.37957799434661865	-0.18214300274848938
-0.21203599870204926	-0.6551989912986755	0.19902899861335754
0.02443159930408001	-0.03664439916610718	0.4905810058116913
-0.123259998857975	-0.09073439985513687	0.24602900445461273
0.03841869905591011	-0.23535199463367462	0.32868900895118713
-0.20629000663757324	0.19144000113010406	-0.341499000787735
0.2488429993391037	-0.5793750286102295	0.3106290102005005
-0.16039200127124786	0.0017416999908164144	-0.19334100186824799
-0.14493399858474731	0.12527500092983246	0.49130499362945557
0.5810570120811462	0.9696800112724304	0.07834319770336151
-0.5065060257911682	-0.4174889922142029	-0.4505630135536194
0.0879770964384079	-0.6157479882240295	-0.354422003030777
-0.22365599870681763	0.36344000697135925	-0.3650670051574707
0.1167529970407486	-0.9293709993362427	0.2613930106163025
-0.43557700514793396	0.2014870047569275	-0.17503400146961212
0.4577209949493408	0.5522300004959106	-0.24897800385951996
-0.10776100307703018	0.5893499851226807	0.4741330146789551
0.6545910239219666	0.7975490093231201	-0.06981170177459717
-0.40879300236701965	-0.6839830279350281	-0.40446099638938904
-0.4638090133666992	0.16929200291633606	-0.24363000690937042
-0.18089500069618225	0.2325199991464615	0.40481001138687134
0.14115899801254272	0.8774359822273254	0.01349829975515604
0.2283490002155304	-0.2584120035171509	-0.046810898929834366
-0.5411909818649292	-0.4503070116043091	-0.051959600299596786
-0.4922020137310028	-0.7545260190963745	-0.001309199957177043
-0.1021910011768341	-0.9038990139961243	0.3319149911403656
-0.2774049937725067	0.03819900006055832	0.2033820003271103
0.3423520028591156	-0.2344599962234497	0.1514360010623932
-0.25874799489974976	-0.4809519946575165	0.1718599945306778
-0.560230016708374	-0.37062400579452515	-0.40245598554611206
0.577538013458252	0.15785899758338928	0.09306430071592331
-0.24190500378608704	0.43376800417900085	0.41026100516319275
-0.046560999006032944	-0.636385977268219	0.30156299471855164
-0.4028080105781555	-0.7756440043449402	0.13607299327850342
0.49806898832321167	0.677012026309967	0.12287899851799011
0.3602350056171417	0.7667070031166077	0.2585600018501282
0.4793980121612549	0.6418889760971069	0.25558599829673767
0.24120500683784485	0.01397399976849556	0.526174008846283
0.3229610025882721	-0.10816299915313721	0.24963699281215668
0.2218260020017624	0.8616840243339539	-0.06172480061650276
0.6269519925117493	0.5331640243530273	0.05155390128493309
0.13742700219154358	-0.8740350008010864	-0.25707700848579407
0.305990993976593	-0.1031540036201477	-0.05880789831280708
-0.06160639971494675	-0.7797809839248657	0.2848460078239441
-0.015412899665534496	-0.25283199548721313	0.2458769977092743
-0.20180299878120422	0.7252389788627625	0.26482000946998596
-0.33102700114250183	0.10814200341701508	-0.12272399663925171
0.39585399627685547	0.714040994644165	0.3010689914226532
-0.4971170127391815	-0.20286600291728973	-0.28995200991630554
0.539493978023529	0.22200199961662292	0.34648600220680237
-0.47681498527526855	0.5838750004768372	-0.21711300313472748
0.0791739970445633	-0.9493989944458008	0.09366320073604584
-0.13281799852848053	-0.2635129988193512	-0.12118799984455109
0.11101599782705307	0.18313099443912506	-0.436614990234375
0.5926920175552368	0.4594869911670685	0.1619649976491928
0.3218280076980591	0.13206300139427185	0.5629259943962097
0.21035200357437134	-0.04815850034356117	-0.2344519942998886
0.3733620047569275	-0.02595910057425499	0.349700003862381
-0.5026909708976746	-0.5286809802055359	0.07461600005626678
0.20401699841022491	0.8591740131378174	0.2011920064687729
0.11892999708652496	-0.04295840114355087	-0.26192501187324524
0.22443099319934845	-0.4233439862728119	-0.10741700232028961
-0.46860700845718384	-0.06041640043258667	-0.2590799927711487
-0.1974489986896515	-0.03668529912829399	0.0312734991312027
-0.41199299693107605	-0.8966140151023865	-0.18634900450706482
0.021008899435400963	-0.9275649785995483	0.37138301134109497
0.5488560199737549	0.8189079761505127	0.0676892027258873
0.14234299957752228	0.552619993686676	-0.4275189936161041
0.09838750213384628	0.7372009754180908	-0.31526899337768555
0.506883978843689	0.49477601051330566	0.3512189984321594
-0.3545829951763153	-0.9377179741859436	-0.23879599571228027
0.4086489975452423	0.38999199867248535	0.4188230037689209
0.4717789888381958	0.026919299736618996	0.2717370092868805
-0.46543601155281067	-0.6200199723243713	-0.3813050091266632
0.33730000257492065	-0.37843701243400574	0.3009699881076813
0.16220299899578094	0.306753009557724	0.6300899982452393
0.5673940181732178	0.1872519999742508	-0.0648891031742096
-0.4673770070075989	0.4383859932422638	-0.23655900359153748
0.18191400170326233	-0.07298509776592255	0.4350750148296356
-0.1407189965248108	-0.05869489908218384	0.32525399327278137
-0.3546850085258484	0.2244500070810318	0.2359350025653839
-0.3049899935722351	0.6327379941940308	-0.21919900178909302
0.285304993391037	-0.2790530025959015	0.3293749988079071
-0.20457600057125092	0.1481180042028427	0.3989480137825012
-0.5466840267181396	-0.31477999687194824	-0.46097201108932495
-0.4401479959487915	0.741782009601593	-0.09585969895124435
0.19785499572753906	0.6319509744644165	-0.3741309940814972
0.06745529919862747	-0.15995900332927704	0.3244740068912506
0.06497109681367874	0.1282549947500229	-0.40925198793411255
-0.24846799671649933	0.02512980066239834	-0.06250680238008499
-0.02507999911904335	0.31624698638916016	-0.45085498690605164
0.42770498991012573	-0.04685080051422119	0.1307539939880371
0.11947000026702881	-0.36564400792121887	0.4156230092048645
0.34551799297332764	0.8045899868011475	0.19371899962425232
0.05463000014424324	-0.6716809868812561	-0.39300599694252014
0.29586300253868103	0.6519680023193359	0.44858700037002563
0.5953959822654724	0.3479039967060089	0.17457999289035797
-0.003991100005805492	0.4010480046272278	-0.45562198758125305
0.2980419993400574	-0.5261240005493164	0.31380000710487366
-0.29317501187324524	0.2429790049791336	0.32236599922180176
-0.35561099648475647	0.7358430027961731	0.015891699120402336
0.4326300024986267	0.4930349886417389	0.40950098633766174
0.09726469963788986	0.8020840287208557	0.3418689966201782
-0.01654680073261261	0.3626979887485504	0.5660669803619385
0.39882299304008484	0.15867100656032562	0.5103060007095337
0.14690500497817993	-0.9496399760246277	-0.13295899331569672
-0.36412400007247925	-0.8915150165557861	-0.30246201157569885
-0.2638530135154724	-0.9450060129165649	0.09926439821720123
0.31405898928642273	-0.00669379997998476	0.45321598649024963
0.03775240108370781	0.20699499547481537	-0.441087007522583
-0.40863698720932007	-0.017332399263978004	-0.23193900287151337
-0.43038299679756165	0.22020100057125092	-0.010660399682819843
0.37976399064064026	0.15979799628257751	-0.3262520134449005
-0.46406400203704834	-0.3295699954032898	-0.04492479935288429
-0.44570299983024597	0.7554730176925659	-0.0012700000079348683
0.1755480021238327	-0.8072670102119446	0.1866540014743805
-0.42797601222991943	0.36280500888824463	-0.24844199419021606
0.024541599676012993	-0.3284609913825989	-0.16957099735736847
-0.4830709993839264	-0.7321019768714905	-0.24882900714874268
-0.032887499779462814	-0.9516239762306213	0.30759701132774353
-0.28944799304008484	-0.560916006565094	0.19247999787330627
-0.48637598752975464	-0.49970000982284546	-0.4244239926338196
-0.508778989315033	0.3877770006656647	-0.17048700153827667
-0.16656099259853363	0.7032039761543274	-0.24176399409770966
0.07465820014476776	-0.08428099751472473	-0.18358400464057922
-0.2874070107936859	0.49181100726127625	-0.30476999282836914
0.10632599890232086	-0.7968260049819946	-0.236067995429039
0.35190901160240173	-0.5357720255851746	0.1543949991464615
-0.1955450028181076	-0.7865769863128662	-0.4538060128688812
0.044869400560855865	-0.24445000290870667	-0.018955599516630173
0.10154599696397781	-0.050469398498535156	0.4955349862575531
0.3402549922466278	0.2074500024318695	-0.3713440001010895
-0.4745439887046814	0.24781399965286255	-0.25056999921798706
0.45323100686073303	-0.008104399777948856	-0.0260148998349905
0.15810300409793854	-0.12458500266075134	-0.10982800275087357
-0.07404190301895142	0.650530993938446	0.45601600408554077
-0.5603430271148682	-0.4892269968986511	-0.20769000053405762
-0.13224300742149353	-0.8363159894943237	0.28279298543930054
0.2838450074195862	-0.6243389844894409	0.1769530028104782
0.11946199834346771	0.002145299920812249	-0.31932899355888367
0.5669209957122803	0.49335798621177673	0.22763900458812714
-0.10023199766874313	-0.282382994890213	-0.21425899863243103
-0.3486349880695343	-0.7625719904899597	0.1842070072889328
-0.39038699865341187	-0.8214880228042603	-0.3277899920940399
0.40222498774528503	0.09652630239725113	-0.27079498767852783
0.10901500284671783	-0.6168889999389648	-0.27463001012802124
0.4207350015640259	0.2325890064239502	0.49097099900245667
0.516444981098175	0.6196190118789673	0.19332100450992584
-0.37124601006507874	-0.5244410037994385	0.17317399382591248
0.36700499057769775	0.4341929852962494	-0.369625985622406
-0.14951400458812714	-0.009097700007259846	0.40450501441955566
-0.5835310220718384	-0.3024350106716156	-0.37612900137901306
-0.4476810097694397	-0.3602469861507416	0.026068400591611862
0.5509459972381592	0.29987800121307373	0.328110009431839
0.5328750014305115	0.5486840009689331	0.26484599709510803
0.06059199944138527	-0.5644840002059937	0.3791770040988922
0.029371000826358795	-0.6752169728279114	0.3170889914035797
0.042391400784254074	0.7850750088691711	-0.2527810037136078
0.022973600775003433	0.05209770053625107	0.5692279934883118
-0.12751799821853638	0.04020800068974495	-0.2721259891986847
0.2697969973087311	0.6359379887580872	-0.3428870141506195
-0.15041999518871307	0.28786501288414	-0.4016610085964203
0.046224698424339294	-0.9131249785423279	-0.33751899003982544
0.10785999894142151	-0.6915640234947205	-0.24317699670791626
-0.3970089852809906	-0.00777229992672801	-0.403779000043869
-0.21252399682998657	-0.24890999495983124	-0.11906299740076065
0.36407598853111267	0.5049620270729065	0.4426259994506836
-0.28687700629234314	0.6914079785346985	-0.15269500017166138
-0.5694779753684998	-0.32280999422073364	-0.2968609929084778
0.31277701258659363	0.22016200423240662	0.5788099765777588
0.1306689977645874	-0.12654200196266174	0.35905900597572327
-0.47822698950767517	0.28642499446868896	0.07586439698934555
0.12688599526882172	0.09543909877538681	-0.39183300733566284
-0.0017652000533416867	0.7134950160980225	-0.3279170095920563
0.24354299902915955	0.7178500294685364	-0.29133498668670654
-0.40349599719047546	0.23517000675201416	-0.35230201482772827
-0.20503999292850494	0.6075839996337891	0.3998120129108429
-0.3731110095977783	0.7188109755516052	-0.12021400034427643
0.02983739972114563	-0.447407990694046	-0.38526999950408936
-0.2623920142650604	0.6284520030021667	0.31216201186180115
-0.48520100116729736	0.30375099182128906	-0.08456149697303772
0.20171700417995453	0.12125299870967865	-0.3944909870624542
-0.20970399677753448	-0.30192801356315613	-0.40102601051330566
-0.10480699688196182	0.7535939812660217	0.3368400037288666
-0.04572619870305061	0.04177189990878105	0.5459579825401306
-0.08495219796895981	-0.016889700666069984	-0.22333699464797974
0.365464985370636	-0.917900025844574	-0.06182289868593216
-0.5163869857788086	-0.46055498719215393	0.02571279928088188
-0.14690199494361877	-0.36305099725723267	0.1396380066871643
-0.5582500100135803	-0.47484099864959717	-0.12908799946308136
0.538008987903595	0.12187500298023224	-0.07722269743680954
-0.30331099033355713	0.07334809750318527	-0.05776989832520485
0.15841299295425415	0.5349159836769104	0.5230290293693542
-0.4631560146808624	-0.4296090006828308	0.07569359987974167
-0.16129499673843384	0.4515959918498993	0.46470099687576294
-0.10726100206375122	-0.09763289988040924	0.02018590085208416
0.4122009873390198	-0.010312999598681927	-0.11696500331163406
0.3767029941082001	-0.38486701250076294	0.09769579768180847
0.12777499854564667	0.6467649936676025	-0.3831619918346405
0.1725279986858368	0.8440380096435547	-0.13158099353313446
-0.04222229868173599	-0.43697500228881836	0.324739009141922
-0.3675689995288849	-0.26548099517822266	-0.07890859991312027
0.34684300422668457	0.7272589802742004	-0.23081299662590027
0.24755600094795227	0.5727580189704895	-0.38709598779678345
0.5112370252609253	0.6602709889411926	-0.18561799824237823
0.39239901304244995	0.2569209933280945	-0.3465900123119354
0.39841100573539734	0.3315249979496002	-0.3526419997215271
-0.13149799406528473	0.7791240215301514	0.25984200835227966
0.12288500368595123	-0.46662500500679016	-0.19998499751091003
0.12217199802398682	-0.8224239945411682	0.2688100039958954
-0.5118880271911621	-0.6563050150871277	-0.2602590024471283
-0.22048699855804443	-0.40757399797439575	0.1391019970178604
0.09000050276517868	-0.8648639917373657	0.3337720036506653
0.38288500905036926	0.03779689967632294	0.44327500462532043
0.35932499170303345	-0.4538060128688812	0.03381679952144623
0.2538810074329376	-0.62322598695755	0.24417999386787415
-0.46351999044418335	-0.7518110275268555	0.07530249655246735
0.36195600032806396	0.02196599915623665	-0.23127199709415436
0.3052450120449066	0.04227279871702194	-0.29751598834991455
0.12650200724601746	0.864674985408783	0.1937679946422577
0.16932900249958038	0.8090400099754333	0.32911598682403564
-0.0908631980419159	0.5328140258789062	-0.4066689908504486
-0.4021320044994354	-0.23005199432373047	-0.4075149893760681
-0.4463129937648773	-0.812483012676239	0.0367899015545845
-0.015198299661278725	-0.5729770064353943	0.3453269898891449
-0.35471901297569275	-0.04388229921460152	-0.28143998980522156
0.056926701217889786	-0.10668200254440308	0.3736160099506378
-0.18751899898052216	0.776386022567749	0.14380699396133423
-0.2096939980983734	0.6812379956245422	0.3264339864253998
0.4054050147533417	0.5308340191841125	-0.309112012386322
0.21228499710559845	0.8075730204582214	-0.1973540037870407
0.5747280120849609	0.36503198742866516	-0.09810449928045273
0.4767870008945465	0.15239499509334564	0.42321398854255676
0.16455799341201782	0.7613329887390137	0.39608800411224365
0.32618701457977295	-0.17665599286556244	0.20538799464702606
0.5804949998855591	0.4109790027141571	0.2192630022764206
-0.19510799646377563	-0.3310360014438629	0.07749109715223312
0.22262799739837646	-0.7924450039863586	0.13382400572299957
0.13933199644088745	0.6344450116157532	0.49564000964164734
0.4020110070705414	0.6189110279083252	-0.2669009864330292
-0.3062579929828644	0.7154790163040161	0.07385279983282089
-0.2716299891471863	-0.918703019618988	0.2666270136833191
-0.09770210087299347	0.2990019917488098	0.4847640097141266
-0.1740889996290207	-0.9428120255470276	-0.13751700520515442
-0.3842479884624481	0.6018379926681519	-0.23498399555683136
-0.20470599830150604	-0.5349730253219604	-0.5240269899368286
0.14722999930381775	-0.630603015422821	-0.1743520051240921
0.39322900772094727	0.7906579971313477	0.13639000058174133
-0.13481000065803528	0.20115900039672852	-0.38497400283813477
-0.08513160049915314	-0.05475940182805061	0.4005559980869293
-0.44790899753570557	-0.5615209937095642	-0.43136999011039734
0.47178301215171814	0.8022329807281494	0.07855810225009918
0.34150299429893494	-0.9056349992752075	-0.13913099467754364
-0.11824700236320496	-0.4941219985485077	0.2470960021018982
0.12467499822378159	0.10172200202941895	0.57498699426651
-0.23589499294757843	0.651727020740509	-0.23916399478912354
-0.09435389935970306	-0.945173978805542	-0.16084299981594086
-0.42629700899124146	0.22939899563789368	0.07654760032892227
-0.2953740060329437	-0.23102299869060516	-0.17142100632190704
0.24789400398731232	0.3956109881401062	-0.4342910051345825
-0.3549090027809143	0.12634199857711792	-0.32969900965690613
-0.5416539907455444	0.5337370038032532	0.022945400327444077
-0.3910439908504486	-0.6901599764823914	0.1728540062904358
-0.021371500566601753	0.5562970042228699	-0.4222419857978821
-0.1286890059709549	-0.29960599541664124	0.01751900091767311
0.33132699131965637	0.30368098616600037	-0.3939000070095062
-0.17190800607204437	-0.9365720152854919	0.020031899213790894
-0.33071601390838623	-0.9447270035743713	-0.04169720038771629
0.3510049879550934	0.6031590104103088	0.4419179856777191
0.061946801841259	0.8633059859275818	-0.05057629942893982
0.05461439862847328	-0.9487220048904419	-0.13265399634838104
0.34189099073410034	-0.8878800272941589	0.011341799981892109
-0.25564101338386536	-0.9457219839096069	-0.11956000328063965
-0.20672699809074402	-0.7985789775848389	0.26370298862457275
0.2708190083503723	0.1633719950914383	-0.3916170001029968
-0.16431400179862976	0.7736129760742188	-0.08841250091791153
-0.185030996799469	-0.903219997882843	0.2896620035171509
-0.3365840017795563	-0.31665098667144775	0.043208200484514236
0.000448200007667765	-0.07321970164775848	0.42666900157928467
-0.28284400701522827	-0.6415110230445862	0.20416699349880219
-0.40203699469566345	-0.8479909896850586	0.08330070227384567
-0.08503790199756622	0.3866649866104126	-0.4336639940738678
-0.3821690082550049	-0.914326012134552	0.015692299231886864
-0.2689580023288727	-0.9449130296707153	0.1857450008392334
-0.44693198800086975	-0.6404939889907837	0.1416890025138855
0.05676409974694252	-0.9479470252990723	-0.2692579925060272
-0.3738189935684204	0.6753190159797668	-0.18004800379276276
-0.11500100046396255	-0.6435949802398682	-0.5049890279769897
-0.25471600890159607	-0.9101449847221375	-0.37018701434135437
-0.2884080111980438	-0.5568180084228516	-0.5114269852638245
-0.28983399271965027	-0.3648169934749603	0.10086099803447723
-0.14076699316501617	0.6464740037918091	0.42331498861312866
-0.38658198714256287	0.3632679879665375	0.18176500499248505
-0.18943500518798828	0.7814300060272217	0.023592999204993248
-0.5116230249404907	-0.25873199105262756	-0.5055680274963379
0.17841699719429016	-0.8641700148582458	-0.19344599545001984
0.5892999768257141	0.6049649715423584	0.13926400244235992
0.02781750075519085	-0.16143299639225006	-0.03242729976773262
0.579060971736908	0.7984070181846619	-0.14515699446201324
-0.5046749711036682	-0.6928380131721497	0.0475504994392395
0.27433401346206665	-0.5028250217437744	-0.07450930029153824
0.2847689986228943	0.7158939838409424	0.4062199890613556
-0.380389004945755	-0.5985860228538513	0.18177300691604614
0.4812510013580322	0.00473329983651638	0.1366260051727295
-0.17212599515914917	-0.4682370126247406	-0.5125200152397156
0.5961909890174866	0.875137984752655	-0.11309400200843811
-0.11257299780845642	-0.9089890122413635	0.07261999696493149
-0.1482580006122589	0.7015069723129272	0.36817699670791626
0.30991700291633606	0.4570469856262207	0.4589160084724426
-0.2420019954442978	0.7477059960365295	0.09012780338525772
0.19425000250339508	-0.6803060173988342	0.24103200435638428
0.06826680153608322	-0.7927820086479187	0.31057798862457275
-0.15460699796676636	0.3806470036506653	-0.4044570028781891
-0.3268530070781708	-0.45588499307632446	0.15823599696159363
-0.3425059914588928	0.038396500051021576	-0.35678398609161377
-0.3716279864311218	-0.6249150037765503	-0.4587010145187378
0.18059200048446655	-0.08402130007743835	-0.17937399446964264
-0.18069499731063843	-0.9466040134429932	0.19255800545215607
-0.3889929950237274	0.17916400730609894	-0.09568300098180771
0.4474340081214905	0.9330229759216309	-0.10777600109577179
0.06646460294723511	0.5539669990539551	-0.4345160126686096
0.3266040086746216	0.36535200476646423	0.4649220108985901
0.3766529858112335	-0.46802300214767456	0.1114170029759407
0.28666600584983826	-0.9430299997329712	0.020462600514292717
-0.2896519899368286	-0.63155597448349	-0.49492400884628296
-0.19690200686454773	-0.7187550067901611	-0.4873560070991516
0.21285299956798553	-0.9324449896812439	-0.17214100062847137
0.42702099680900574	0.585457980632782	0.3970629870891571
-0.4806419909000397	0.27966099977493286	-0.016436299309134483
-0.5640429854393005	-0.2002830058336258	-0.32013198733329773
0.5856220126152039	1.044950008392334	0.03382999822497368
-0.07969889789819717	-0.9473299980163574	-0.23924900591373444
0.33274099230766296	-0.8335090279579163	-0.11593200266361237
-0.01737090013921261	-0.28754299879074097	0.0034747999161481857
0.23096199333667755	0.8762509822845459	0.009967200458049774
-0.3083760142326355	0.02179889939725399	-0.29526498913764954
0.3377470076084137	-0.46313199400901794	0.2965019941329956
0.4244630038738251	0.6591619849205017	0.3398280143737793
-0.2720159888267517	0.10665299743413925	-0.2871299982070923
0.09271659702062607	0.572467029094696	0.5210019946098328
-0.15324600040912628	-0.5778210163116455	0.21263200044631958
-0.04999589920043945	-0.33490100502967834	0.24893899261951447
-0.010314799845218658	0.12486500293016434	0.6122570037841797
-0.39002901315689087	0.12089700251817703	-0.177387997508049
-0.5081440210342407	-0.06563650071620941	-0.4033930003643036
-0.43348801136016846	-0.48139700293540955	0.12866899371147156
-0.29424700140953064	-0.3530060052871704	-0.47315698862075806
-0.2117609977722168	-0.03779919818043709	0.1418280005455017
0.28319498896598816	-0.42038100957870483	-0.06278330087661743
-0.3847230076789856	-0.08524969965219498	-0.3990989923477173
0.12756399810314178	0.42155399918556213	-0.46196699142456055
0.21415099501609802	-0.09937159717082977	0.3636550009250641
0.2792550027370453	-0.08348920196294785	-0.12330599874258041
0.43639999628067017	0.31815698742866516	0.43400898575782776
-0.11207199841737747	-0.9192150235176086	-0.030931200832128525
-0.6096339821815491	0.5737329721450806	-0.07414080202579498
-0.5015019774436951	-0.6230520009994507	0.08084169775247574
0.12812399864196777	-0.17144599556922913	-0.06418880075216293
0.362635999917984	0.875914990901947	0.13578499853610992
0.6216199994087219	0.7398239970207214	-0.1121399998664856
-0.5232999920845032	-0.31931498646736145	-0.24005399644374847
0.25052499771118164	0.08073029667139053	0.5648800134658813
0.018495900556445122	0.5571230053901672	0.5210239887237549
-0.5460529923439026	-0.40533098578453064	-0.1758590042591095
-0.06389039754867554	0.5391349792480469	0.5068209767341614
-0.4320800006389618	0.5693380236625671	0.017892999574542046
-0.03452730178833008	-0.9173579812049866	-0.022827299311757088
-0.4548250138759613	-0.2846809923648834	-0.18299099802970886
-0.21898199617862701	0.5181540250778198	-0.34011000394821167
-0.11706600338220596	0.8121849894523621	0.17063100636005402
0.27339598536491394	0.09452260285615921	-0.35507699847221375
0.2815150022506714	0.48599401116371155	-0.4040620028972626
-0.2827790081501007	0.560172975063324	0.34484198689460754
-0.5822610259056091	-0.221329003572464	-0.39458200335502625
-0.023058999329805374	0.12633199989795685	-0.3886759877204895
-0.2100519984960556	0.50723797082901	0.43334800004959106
0.24439500272274017	-0.15165600180625916	0.31467199325561523
0.19635100662708282	-0.003220299957320094	-0.30267399549484253
-0.4201180040836334	0.34448400139808655	0.0947754979133606
0.6419129967689514	0.9031620025634766	-0.058978501707315445
-0.1765259951353073	-0.27392399311065674	-0.04012500122189522
-0.20201599597930908	0.010480700060725212	0.35778099298477173
-0.1579110026359558	-0.07656779885292053	0.09714160114526749
-0.01684419997036457	-0.059642501175403595	-0.19458900392055511
-0.2011220008134842	-0.6244779825210571	-0.5153229832649231
-0.03191079944372177	0.009051400236785412	-0.2866950035095215
-0.33687299489974976	-0.41259801387786865	-0.5037109851837158
0.04704580083489418	-0.38362300395965576	0.39163199067115784
-0.35496801137924194	0.5025410056114197	0.22782599925994873
0.09868550300598145	0.01663780026137829	0.5567730069160461
0.34401699900627136	-0.5253859758377075	0.22592100501060486
-0.21583899855613708	-0.25526899099349976	-0.27285200357437134
-0.37051600217819214	-0.36916300654411316	0.0889429971575737
0.45133399963378906	0.2756749987602234	-0.2985759973526001
-0.07621610164642334	-0.323076993227005	0.17058199644088745
0.2539699971675873	-0.9506210088729858	-0.054312799125909805
-0.06785620003938675	-0.5024970173835754	0.3041659891605377
0.601606011390686	0.4595069885253906	0.08595649898052216
0.4637160003185272	0.9835609793663025	-0.05013579875230789
-0.2920849919319153	0.4856620132923126	0.36438900232315063
0.02701910026371479	0.7153030037879944	0.4371519982814789
-0.02781290002167225	0.286327987909317	0.606469988822937
0.530368983745575	0.7294260263442993	0.07913559675216675
-0.37681299448013306	-0.2476940006017685	-0.19885900616645813
-0.29411599040031433	-0.29225701093673706	-0.40367600321769714
0.0505295991897583	0.2755720019340515	-0.45938000082969666
0.5020319819450378	0.9555879831314087	0.0946372002363205
0.3197129964828491	0.27834099531173706	0.5328019857406616
-0.3272530138492584	0.15477000176906586	0.24468399584293365
-0.40089601278305054	0.29944100975990295	-0.29716598987579346
-0.17467300593852997	-0.3614490032196045	-0.4560770094394684
-0.027462100610136986	-0.6950669884681702	-0.4541189968585968
0.20954200625419617	0.05080140009522438	-0.3489690124988556
-0.29642999172210693	0.7216339707374573	-0.08500350266695023
-0.10312200337648392	0.41537800431251526	0.49159398674964905
-0.2666949927806854	-0.9469159841537476	-0.28751400113105774
-0.5264800190925598	-0.6883820295333862	-0.1384740024805069
0.3793709874153137	-0.05335630103945732	-0.06948179751634598
0.6049209833145142	0.6858050227165222	0.10555599629878998
0.10800600051879883	0.8420680165290833	0.2663939893245697
-0.29317501187324524	-0.8462539911270142	0.26833799481391907
0.06475020200014114	0.6849610209465027	-0.3622420132160187
0.5476729869842529	0.6013460159301758	-0.15415599942207336
-0.4032059907913208	-0.9158210158348083	-0.07055959850549698
0.5159599781036377	0.30439499020576477	-0.2199230045080185
-0.02032330073416233	-0.9506469964981079	0.2072480022907257
0.18904399871826172	-0.39806699752807617	0.415910005569458
0.48502498865127563	0.5974239706993103	0.31536200642585754
0.4201970100402832	0.6758450269699097	-0.22509700059890747
-0.4204980134963989	-0.37105798721313477	-0.5086380243301392
0.22114300727844238	-0.5315309762954712	0.369394987821579
0.2176080048084259	-0.24731600284576416	0.36684900522232056
-0.2296759933233261	0.7493489980697632	-0.04966000095009804
0.055841799825429916	-0.12420199811458588	-0.10137800127267838
0.48038700222969055	0.08668579906225204	0.357914000749588
0.23145000636577606	0.6268320083618164	0.48354199528694153
0.2586039900779724	0.30412399768829346	0.5619410276412964
-0.43967100977897644	-0.5595629811286926	0.14511699974536896
-0.3556550145149231	-0.9431290030479431	-0.13304099440574646
0.03902430087327957	0.22855299711227417	0.6302019953727722
0.500702977180481	0.22064700722694397	0.4128600060939789
-0.5368599891662598	-0.1831270009279251	-0.47597798705101013
0.3293119966983795	-0.8141760230064392	-0.03737010061740875
0.018433300778269768	-0.4537169933319092	0.38149499893188477
0.4624849855899811	0.7356939911842346	-0.20074999332427979
-0.1825380027294159	0.3360089957714081	0.3996259868144989
0.5727440118789673	0.43768200278282166	-0.08914750069379807
-0.5584080219268799	0.3991439938545227	0.03984009847044945
-0.4476889967918396	-0.05838080123066902	-0.4439530074596405
0.21386000514030457	0.7079929709434509	0.43899500370025635
0.6540070176124573	0.7555239796638489	0.08100499957799911
-0.21317699551582336	-0.24971100687980652	-0.192999005317688
0.3106270134449005	-0.04761270061135292	0.38755300641059875
-0.07797220349311829	-0.09590130299329758	0.3158470094203949
-0.47522100806236267	-0.26820001006126404	-0.25999200344085693
-0.41984501481056213	-0.12988899648189545	-0.45110300183296204
-0.4242990016937256	-0.2764810025691986	-0.31109899282455444
-0.2709929943084717	-0.7903569936752319	0.2277359962463379
-0.14796000719070435	0.3770669996738434	0.44921600818634033
-0.39917701482772827	-0.15692700445652008	-0.3873690068721771
-0.4269790053367615	-0.4597019851207733	-0.4884740114212036
0.35585999488830566	0.9262089729309082	0.08243300020694733
0.01718359999358654	-0.6209750175476074	-0.44604501128196716
-0.49190399050712585	-0.7569370269775391	-0.16933000087738037
0.31305399537086487	0.7499210238456726	0.3491320013999939
0.4400610029697418	-0.024299699813127518	0.20448000729084015
-0.3275949954986572	0.035284001380205154	-0.22446000576019287
-0.33235201239585876	0.5006260275840759	0.2969920039176941
-0.3203740119934082	0.5713760256767273	0.261821985244751
-0.4473550021648407	0.6542270183563232	-0.1918099969625473
-0.47305500507354736	-0.15490399301052094	-0.49356499314308167
0.17083600163459778	-0.918707013130188	0.15731599926948547
0.0709037035703659	0.13960300385951996	0.6132519841194153
-0.04343939945101738	0.8486149907112122	0.01575000025331974
