3
-0.45913424475829445 0.046275466118072012 0.04558857171096007 
-0.18529190043346527 0.25565876124362336 -0.040419716656085555 
-0.27898514551097087 0.012989882254748697 0.04558857171096007 
-0.3938267922394757 0.0031255866679321879 -0.045588571710960063 
-0.41484633779253394 0.11987231142538046 -0.021203016759908971 
-0.34485921838758515 -0.032998022550113526 0.013802304794066852 
-0.4645006123001067 -0.15350557653085745 0.04558857171096007 
-0.34932765062669247 0.26421591850805742 -0.039412414369846036 
-0.39743519607325578 0.21522960775319364 0.04558857171096007 
-0.41589717716475744 -0.13381124516886511 -0.037274925802320107 
-0.36360460083512797 0.24906378169420085 0.013948051457826797 
-0.28357062640794606 -0.37342696633311334 0.04558857171096007 
-0.28207867201584735 0.41077770593018875 -0.045588571710960063 
-0.44214883191593907 0.17247010324261478 0.04558857171096007 
-0.16902961351558915 -0.26270030364724078 -0.045250236126007176 
-0.4654830688147637 0.17494526636080379 -0.032831339334795262 
-0.43694282217512015 0.043256362956513715 -0.026333668591689688 
-0.41404919882188196 0.12263620976250085 0.011966407422694782 
-0.38286356133728061 0.32021035524347446 -0.040447571273400956 
-0.11130155736943369 0.41969544600257064 0.04558857171096007 
0.16979741624034514 0.26600827879344546 0.014313170328659874 
-0.23006475583080116 -0.029461375128206509 -0.045588571710960063 
-0.17437368824583474 0.32507670733076088 -0.0011617107786245332 
-0.367573883802572 0.012008041185809816 0.0053571586503266353 
-0.44901018548986882 0.16438631491254146 0.00023890691005129552 
-0.29709566150886685 0.013864749740167902 -0.043221727039156298 
-0.37866594800842224 -0.23049371009917249 0.033634723939771669 
-0.12637530463423333 -0.27968079292385134 0.044342704428957103 
-0.10617193128051647 -0.14688702768986026 -0.031730443710833146 
-0.4372377574398042 -0.19089075829386051 0.00026245340733999767 
-0.1011124204148907 -0.49127497421738331 -0.045588571710960063 
-0.30231154117546122 -0.31505718265726851 -0.045588571710960063 
-0.12849574307593939 -0.018837072462396558 0.04558857171096007 
0.13739166901675753 -0.22967336654551965 -0.045588571710960063 
-0.014411504877840443 -0.48308560275522744 -0.0066809823899553374 
-0.49772572292305534 -0.061198474770509416 -0.045588571710960063 
-0.12365339337165875 0.018434069488471542 -0.024360526825181771 
-0.14821674375238258 -0.4608742123776437 0.0081856559935614415 
-0.15684360594296268 -0.33581767115157923 -0.013002909189115159 
-0.47222461562223711 -0.070620470034586241 -0.0032056971855712849 
-0.19898987578117158 -0.029155042720594673 0.011585332551762867 
-0.076006041762231746 0.069922463413119709 0.027013394195900122 
0.18982297137010348 -0.015987057313314158 -0.045588571710960063 
0.079395734423228462 -0.14300545713438814 0.04558857171096007 
0.45874519188731311 -0.19130620694786252 0.04558857171096007 
-0.40807012087627437 -0.018173097709712257 0.04558857171096007 
-0.081122492753924497 0.011071857071439343 0.04558857171096007 
-0.48461005040181315 0.0061676436753469854 -0.017114724826013492 
0.018703418167282868 0.075159997651276747 0.04558857171096007 
-0.41232649787406817 -0.034775361401122876 -0.017800787241691728 
-0.46614289500742229 0.11027539281164873 0.0092121510684912769 
0.31800387976980687 0.0099339435272479768 0.04558857171096007 
0.38641326988498281 -0.26856711973501013 -0.045588571710960063 
-0.38892362738053265 0.20975492176499622 -0.0046408482173181638 
0.012029912303088159 -0.073821813511559128 0.04558857171096007 
0.36609453465055131 0.23891797667706904 -0.0039435482187131733 
-0.14061154424813094 -0.2103409172657689 0.0060072288886390641 
0.30696907481002567 -0.011958851116933738 -0.045588571710960063 
0.14418796769885575 0.42549210127847681 -0.045588571710960063 
0.15424594633258631 -0.42765233854328655 -0.045588571710960063 
0.079076340889821448 0.060680588595872921 0.00058727198078059031 
0.22467903594029759 -0.32588601845005971 0.026975646858523446 
0.45228950821875341 -0.042866922582672884 0.04558857171096007 
0.11554259381284669 0.16629137014719908 0.04558857171096007 
0.058904081736297305 0.43206029754201919 0.004516733330835087 
0.45653223143931965 0.089106841011953208 0.04558857171096007 
-0.19479014258372868 0.44605464419441843 -0.011000795885284926 
-0.24947545789389372 0.36753478020518687 0.04558857171096007 
0.41792566345732246 0.032701924776850716 -0.0023215068372372119 
0.11361476708661945 -0.013725043562159714 0.04558857171096007 
-0.2916346976807544 0.37801534210439219 -0.0035066273474353305 
-0.37151218933553837 0.28493088681351475 -0.045588571710960063 
-0.38611514342027897 0.011519536845641028 -0.019091126175398741 
-0.43806787974208905 -0.059928035248354272 -0.019080640803905223 
-0.42999070175491388 -0.094593607971654128 0.04558857171096007 
0.41809835296696357 0.11664582585110897 -0.02242659123034528 
-0.17682010776956 0.2418389960265912 0.011644597694987118 
0.094955410273895244 -0.035457936291065174 0.010158888937212783 
0.18348465547941351 -0.019078805863893884 0.01703667719124434 
0.022193838777474988 -0.052968506685244943 0.014505417335564989 
0.060124009120996691 -0.43003926498092898 0.008941605689672576 
0.24557430704687169 -0.41662589908641423 0.012279395761776377 
0.32160688135783927 -0.38164428358972807 0.044095135690280729 
0.12014555792707303 -0.24259221040839982 -0.002749720291318264 
-0.21306858408552198 -0.4410854214950663 -0.045588571710960063 
0.32522492717453605 -0.35018645953772642 -0.0084091995549461212 
0.13568647408048082 0.025266337553649772 -0.028057418076652803 
0.11353555694327169 -0.14458090699557546 -0.0068247459508458518 
-0.16800163681207875 -0.40909350453118493 -0.021821015438022746 
0.076131501511580282 -0.47244206171215541 0.04558857171096007 
-0.21249150115051879 -0.44889335337771663 0.038752816120046024 
-0.25925149400587788 -0.3545311871874961 0.0027238259825864484 
0.066367546371099567 0.036014983048801318 0.04558857171096007 
0.17602187467318695 -0.3337415675958621 -0.0033963030038948083 
0.21007888555271723 -0.32940130762612013 -0.045588571710960063 
-0.056272595405711383 -0.43549829129474377 0.0017363319307553454 
-0.21123232200557621 -0.34045747083174804 -0.013059393429465039 
0.083843264302206275 -0.49235054538976003 -0.038108831956056993 
0.30782235610673964 -0.30814173824300373 -0.01468950398813384 
0.44966622783107546 -0.18666004766194 -0.010349061664105043 
0.13675976582427196 -0.43494179159986807 0.04558857171096007 
0.11992848794287134 -0.47148267301478419 0.010130829171324683 
0.25637373821090936 -0.3677777672924063 -0.045588571710960063 
0.26786260534493184 -0.35055089457998384 0.012111219520734642 
-0.29017515676314215 -0.38975310004567071 -0.045588571710960063 
-0.019277742993697566 -0.44735220891674177 -0.045588571710960063 
0.015434626398463601 -0.44110880843235406 0.0068294643680179481 
-0.13241102638019173 0.41614829041488421 -0.045588571710960063 
-0.11163398923434999 0.22273123002251799 -0.02758940579946809 
-0.12766833329367133 -0.28206316050432273 0.00065574601549045757 
-0.10829405649937578 0.41638801791922631 -0.00072458475877399265 
-0.10010944904296369 -0.030454681722930744 0.018231211741500768 
-0.13393614645821023 0.17188360626755331 -0.016510949782273535 
-0.24744462378988558 0.015172845422556301 0.0045574667196588243 
0.090266238170563465 0.041299131601532875 0.023484337271182987 
0.047741036124293028 -0.044344083483251383 0.04558857171096007 
0.04739312693928082 0.02846152657344167 0.017582326806052817 
0.29541768294990151 -0.38738771420816165 0.0063918596681644358 
0.18192853517263161 -0.39986836071975607 -0.010819262192731882 
0.02368257917526807 -0.4724164865234256 -0.045588571710960063 
-0.28188888679181462 -0.031339054425551655 -0.0091942119655230008 
-0.30882892897583181 0.30719700627143753 -0.010647871957384526 
0.041631460892162846 -0.11451444615219238 0.016793484955452225 
-0.1572500736483376 0.20991489206312997 -0.01102151589112756 
-0.14064977026551059 0.27006386092713847 -0.014515697558485804 
-0.24863890760299759 0.35899492380371717 -0.041297729752952789 
-0.30641754426946644 -0.30553917786116847 0.028264504163649853 
-0.22559203826595298 -0.42251500798575015 0.0072633763935628622 
0.17708310823976053 -0.24824425873483877 -0.0018079287826273944 
-0.35156411198340287 -0.25864478989640549 -0.014300815825726192 
-0.21185704499801736 0.29899375308919551 -0.017878766493603329 
0.20419645537913692 -0.29247337923737804 -0.016706752697772109 
-0.088730860663909991 0.47669944165852685 0.011708763609670296 
-0.40704339785848598 0.010968165865082745 0.0022438922938993154 
-0.40412659545184704 -0.17303638168612254 0.01230709081909079 
-0.42290416343101778 -0.11046064197279626 -0.0030338738587926753 
-0.45324080494464597 -0.14671695952309249 -0.045588571710960063 
-0.47391355823269887 -0.021623058462510857 0.04558857171096007 
0.36687815660969092 -0.24546595440905775 0.043136681558629507 
0.088219653215029212 -0.19051241873723126 0.001328633333944223 
0.40561786601537009 -0.1462960402404852 0.0075196753437218799 
0.094180564114809864 0.22225619710528979 -0.021480240864483319 
0.36560516412751992 -0.24681697173171205 0.0053066009242991796 
0.19086045329081561 -0.45496367684960365 -0.023715220592613134 
0.47341899061249254 -0.11239548933906693 0.0094813515844444866 
0.48018100668866404 0.033834618429581235 0.00098197783465408519 
-0.14211359650886365 0.46502689816908094 -0.01534417867218908 
-0.16568968078061494 0.40217124462544923 0.0028397349261615593 
0.23972191974204901 0.37018302033587652 -0.042640199218411286 
-0.46994680543098483 -0.12959197726844404 0.0087541454827971127 
0.38859231243562325 -0.013675215253279676 0.015303034986219953 
0.40723518897967403 0.1832679160123567 0.04558857171096007 
0.23335214773687854 0.37679940371971737 0.0057754565900605499 
0.33715447623700262 0.030574009809384156 -0.00032283547057115696 
0.18234220587233685 -0.019108894321223112 -0.015132396962305813 
0.0287291200922421 0.48168516742083844 -0.045588571710960063 
-0.07675348918971879 -0.092684426971256728 0.00075323717609434768 
0.026582149101800286 0.48064476783153681 0.020788844585914904 
-0.019436003720392156 0.43839806636984857 0.023441985488063508 
-0.019887991614620504 0.052516268053872175 0.0038623549724959676 
0.46816684523710211 -0.058358397930060021 -0.045588571710960063 
0.42683907261539172 -0.072714854607559498 0.003744075423191879 
0.44148478878039732 -0.021933448253004927 -0.0084631536295660427 
0.15747696796974303 0.33887784961624901 -0.015234925660083764 
0.099790237863843542 0.46693648946662369 -0.0050468372426901199 
0.40140931142930109 0.031847914062989334 0.04558857171096007 
0.24104029564735818 0.028041929359413974 -0.00894342923254101 
0.10087570175628147 0.23459180357598583 0.019064753186663959 
0.18880527488951382 0.026665769939461112 -0.014315700494389821 
0.27810998169983564 -0.016585863202737625 -0.018356511930848335 
-0.42197313082525079 0.22826673116537799 -0.012238958698668747 
-0.46958599468017842 -0.068099855110401411 -0.045588571710960063 
0.2785645681426514 0.029030449154108576 -0.040851052927328803 
0.11173799956070848 0.15903562983939779 0.015966257527470992 
0.40947067018209271 -0.22968296293986479 0.04558857171096007 
0.19817450138183523 -0.36987846588256151 -0.030377511668166983 
0.48798627163986918 -0.021851320441067672 0.01469255842243848 
0.2128340308840691 0.34530196319889894 0.0010434084350346064 
0.1893117867155085 0.40124126055683151 -0.018003656385805505 
0.37664936033307383 -0.313529714767807 0.015987137093314615 
0.082165240154669222 0.47648569964005999 -0.025595498438545822 
0.41390181096954037 -0.23952277746367254 0.0070483806893739771 
0.17671919746607778 0.31712100009290944 0.04558857171096007 
0.21077923998562687 -0.39044027938135584 0.023922352268181894 
0.43718216217660266 0.053049312428602599 0.017460992822444104 
-0.10510253735960658 -0.42395836496040501 -0.042087984849276429 
0.47716842269286047 -0.053551447751712965 -0.010805836358363005 
0.018035568386003197 0.45270588004133244 -0.045588571710960063 
0.41913943638484091 -0.099412000881500664 -0.045523972704845636 
0.47814265047032356 0.07897416550347422 -0.027639781171208699 
0.41649249552844497 -0.10858989213835119 -0.016995282768130778 
0.48040021933573634 -0.11088757894686935 -0.039810904075171537 
-0.38353574203287288 -0.31940106691846148 0.040455480890592817 
-0.15846931720446139 -0.46375180861261128 -0.021211131525673523 
0.49722785013140003 -0.043128441424292778 -0.042626545441183855 
-0.0045797367369396135 0.44207802146692898 -0.0065495049491409293 
-0.10805859152648867 0.45106350615687341 -0.045588571710960063 
0.4399458097765786 0.043839554760126159 -0.044722388848451824 
0.4505738507052689 -0.10678007142999775 -0.045588571710960063 
0.47296258062680824 -0.08856324288287179 -0.017580799588900489 
-0.38808766974106873 -0.29838881553687707 -0.013607048941428805 
-0.32934900613722473 -0.36378491503338778 0.011946439628285385 
0.4566641419715653 0.17211211898325446 0.016203728397513384 
-0.19587348660758205 -0.33230447904981752 0.04558857171096007 
0.40132540566306707 -0.001986738558020759 0.04558857171096007 
0.34938089807845085 0.34433094941574144 0.020389078400581503 
0.18776170689447827 -0.45252222648019486 0.0124907899688001 
0.37143051740931821 -0.33436293982828247 -0.04235951038238691 
0.11914798880089382 0.41782300939097233 -0.0062172098499397414 
-0.054497262451857355 0.12952589663374894 -0.0098684441468422455 
0.29235978391381717 0.38084185634475753 -0.018584523172260701 
0.41584208337584466 0.22705106631213343 0.0017517864565653549 
0.30153466632493481 0.3059774208010258 0.022499806476513097 
-0.43039575621456572 -0.14907416221197942 0.04558857171096007 
-0.36866073814644706 -0.2799992063029666 0.04558857171096007 
0.39395072477167187 0.19711674394385456 0.015190750334095855 
-0.43999591161688895 -0.0053953048877057683 0.04558857171096007 
-0.39769776345202507 -0.21670018110516001 -0.045588571710960063 
0.009372280926626014 0.47590127694501139 -0.0051607402891099517 
0.14033890179501354 0.21173189297152778 0.041756122841506503 
0.14228257054991036 0.21531312601656813 -0.01903733166077981 
0.17651220255622418 0.37394975327920882 0.033078611747755525 
0.41863050836454552 0.11487206570297896 0.025213944887610959 
0.21694536784096446 0.019865436668766442 0.04558857171096007 
0.19347571008987241 0.30963483234939526 0.023565872431688038 
0.2572897949708694 0.3519351003828437 0.043859830277394617 
0.0716415286723395 0.18072874653948545 0.0058670440306278649 
-0.028804569178423715 -0.10151383918594863 0.0020668490756598052 
0.38329207111707775 0.23919745741594314 -0.045588571710960063 
-0.48372567769919228 0.055185387750405462 0.026770065194392862 
-0.06824157858270781 0.15194658414405771 0.011096759828736504 
0.16559373963144919 0.44704731254913882 -0.0093112150348191765 
0.16331335368589531 0.40738539192631862 0.015049744881793854 
-0.29614402286868641 -0.38857454428979893 0.013934124149169096 
0.36293091571666924 -0.00096104128309587632 0.04558857171096007 
-0.2359591757987414 -0.37872524734307528 0.0087489255913362068 
-0.08440669345998203 0.055372050157276025 0.0026379143191971413 
0.27505529665805689 0.40867899044290296 0.03521019659524488 
0.22985541310950444 0.40398108812808853 0.04558857171096007 
0.21682079706876425 0.42991838688303735 0.021983128399026924 
0.15577806425636243 0.40916628668592137 -0.015703393822985589 
-0.19098919541732737 -0.40366087400039086 -0.0021908727849994573 
-0.2240935647080996 -0.37332151996674595 -0.045588571710960063 
-0.17310878773514243 -0.028473242836371444 -0.017248322135412459 
-0.23299427744894743 -0.42855029664027733 -0.019687470281949813 
0.39334421441362938 -0.1888530631098099 -0.042207198964300592 
0.34028575007925582 -0.30236552944150996 0.04558857171096007 
0.38018723864641701 0.031707706410692295 -0.044147744902035171 
0.38525538854638192 0.031841212542947819 0.0036486129540291268 
-0.086064886578824829 -0.054780561233612163 0.012723861541672385 
-0.10408044158184683 0.021296142814771497 0.0048817610245247391 
0.19337293065495009 0.30944554859965129 -0.01776123915573247 
0.20868984736125598 0.37068622699042209 0.04558857171096007 
-0.10191865430559895 0.1196544892297455 -0.0041912309288188211 
-0.46671911175956299 0.081689853926010275 -0.045588571710960063 
-0.054392841828353362 0.018559096146388857 0.020584106310360992 
-0.082571958597188619 -0.10340476196337582 0.030116562683693459 
0.25336566748370515 0.41175592270767669 0.017789116567333736 
-0.087042510704880491 0.095387464565142938 0.012337019716419028 
-0.053935679631235849 -0.14621300065711373 0.010443840304692135 
-0.089946913020014008 0.15664006436741615 -0.045588571710960063 
-0.18094655733797757 -0.28465689949753192 -0.011933948359636567 
-0.12012378938408109 -0.17259280488337489 -0.013188887767410021 
-0.16735778941380483 -0.25962002062244632 0.0030177810929787195 
-0.10151323513737344 -0.028023306427870095 -0.017694223955317358 
-0.42881912105051384 0.24317661030916257 0.021513634493261602 
-0.40667052893046202 0.22371427918860734 -0.045588571710960063 
-0.39462322458726617 0.27234021228409599 -0.011936341759651392 
-0.41164836786986764 0.26159453004610556 -0.033553827019270566 
-0.20750144447389468 0.41474780949192358 -0.045588571710960063 
-0.36423768933047801 0.31493256629649657 -0.0098241320551391877 
-0.33732053260945982 0.35688709060208917 -0.045588571710960063 
0.051594980005308301 -0.0223431299526855 -0.043577933344219881 
0.075773129749360416 -0.082980124476859748 0.016419727050279918 
0.018978659168987774 -0.10151383918594863 -0.045516427796227471 
-0.3536751135907647 0.31461700220311334 -0.045588571710960063 
-0.25373484373742039 0.36566833849076841 -0.012975031777513907 
-0.37643732788604611 0.3035816729747573 0.023106180068840576 
-0.28236492265762042 0.41217207798454014 0.042034099157514083 
-0.35696699597115555 0.3003010965601508 0.04558857171096007 
-0.34094416302619129 0.3578450432594516 0.028103941214083852 
-0.35002324105385824 0.34583915613365518 -0.020132186798990225 
-0.13948833301831631 0.44133230640516691 0.04558857171096007 
-0.23726827442970749 0.41461120333679163 -0.00025607100730045686 
-0.22815466305896948 0.32557945809958933 0.037931310057814527 
-0.27513988625286651 0.34295116570433748 -0.028020856042140614 
-0.20021951353164547 0.32059826840016303 0.04558857171096007 
-0.22293725617522278 0.39933499722502369 0.04558857171096007 
-0.27918842495223006 0.37374394367221958 -0.045588571710960063 
-0.27734067455221312 0.34061543523272653 0.03576608084440247 
-0.22045265622268961 0.37136385552033374 -0.045588571710960063 
-0.39053591280766248 0.28571077050977411 0.04558857171096007 
-0.44476696079501365 0.0099743350017838638 0.0020434621383720831 
-0.44769682432744773 0.11312404030357978 0.04558857171096007 
-0.44050597935147706 0.12574357239889158 -0.045588571710960063 
-0.47143711863450194 -0.014941050329692059 -0.045588571710960063 
0.074534328695972651 0.12533031199633177 -0.045588571710960063 
0.029238845912542367 0.10260329207841123 0.0017401841650649134 
-0.019898476986114032 0.071600533149228429 -0.045588571710960063 
0.23592858586712334 0.43479976040470253 -0.042868689139826617 
0.19940049204657218 0.34268675198841386 -0.045588571710960063 
0.18039167603739761 0.38109767661491362 -0.00067174760416098891 
0.19786823735708095 0.40762208779064202 0.04558857171096007 
-0.023089563034451935 -0.10151383918594863 -0.032594506704756825 
0.078218591913079741 0.09727701968541877 0.042720138778906472 
0.062984372875857508 -0.14739734616159275 -0.045588571710960063 
-0.052058045922462381 -0.14275353468711335 -0.022536869985314095 
0.1283086931662093 -0.0071057197154434648 -0.045588571710960063 
0.043379919382993334 -0.060238584598849329 -0.045588571710960063 
0.11076960712042432 -0.14006893767048417 0.038632530673586657 
-0.091319812857089594 -0.16790536514576812 -0.045588571710960063 
-0.44370296911985152 -0.041149304760604896 0.0042914346094395225 
-0.48672298952347276 -0.04565265784564275 -0.014459190523850066 
-0.36733933060111906 -0.023317904793009207 -0.045588571710960063 
-0.43134511542616061 -0.035276425392797982 0.028723193577919675 
0.24895244300493968 -0.36548254226676047 -0.0027636703942618144 
0.36418973015303813 -0.31093189559742962 -0.01140689888208616 
0.41639997352215763 -0.27471204890450213 -0.042817379202365932 
0.3062330929083239 -0.30982837863059409 0.031756406402422548 
0.38636786366755865 -0.21304206293392916 0.021215143319984094 
0.32761153449217661 -0.33583216831738333 -0.045588571710960063 
0.27597144459516026 -0.34194502592667669 -0.015364306026599469 
-0.032468271949689161 -0.048526857732017814 0.016908824041880949 
0.36487727419729699 -0.30347383320837507 -0.045588571710960063 
0.38530243595238772 -0.27013475115614904 0.04558857171096007 
0.41282523684858607 -0.21091079720644179 -0.045588571710960063 
-0.25516101382054024 -0.41054417847159941 0.04558857171096007 
-0.19466411297723371 -0.41761102253251636 0.04558857171096007 
0.19308000128742128 -0.36156791999679794 0.0049207392533376125 
-0.21771941620004487 -0.41227684052233199 -0.045588571710960063 
-0.21355193691708743 -0.34473126266393539 0.01770370637823325 
-0.39957090668648498 -0.26562376198534954 -0.001063558583730838 
-0.050455949541110004 -0.49854774185671868 0.041832118990548679 
-0.10757008718631988 -0.47019153628107219 0.016584165028441348 
0.34258489572206879 -0.33731005863510921 0.012691949541474706 
-0.12940771965873124 -0.027321971840668723 0.016707846823493178 
-0.43953849868262707 -0.059277531918610557 0.04558857171096007 
-0.45826213538146371 -0.095701455852802236 0.04558857171096007 
0.35622932729230061 0.29213688998957926 -0.045588571710960063 
-0.44179549769089327 0.026430464526575 0.028682710926240342 
-0.40356590160837391 -0.034544592051121967 0.016440743381838673 
0.46445958258556674 0.10793895571717617 -0.004196177288849458 
-0.23172864752110778 0.43358623821432846 -0.020253589165456515 
0.46685514805754857 0.0025899893331859966 -0.045588571710960063 
-0.20932437189661496 0.39136303766135733 0.018432530874176366 
-0.27999593532294625 0.39622859194863885 0.014750387525653838 
-0.2364314961959528 0.33908131141179509 -0.0020023868352604963 
-0.20755334706278761 0.36086590158102072 0.04558857171096007 
-0.21342255655057174 0.44523972568079917 0.034577814722756298 
0.4435782843762221 -0.014674539539469787 0.02549210355790538 
0.46001244020944848 -0.0038598589981948183 0.04558857171096007 
-0.21084680224890251 -0.36818161365490787 0.04558857171096007 
-0.26035788305273111 -0.3600961385476813 -0.045588571710960063 
0.39837404711907126 -0.26716100862344311 -0.013713452667802183 
0.22948673833007791 -0.33372868882435375 -0.0018088177597757559 
0.42652186733342695 0.24860796435994872 0.043494141549415145 
0.073698940913655142 -0.060985257020617294 0.04558857171096007 
-0.21961136472033554 -0.0030731370161787464 -0.045588571710960063 
0.14413184816707952 -0.23562221926808283 0.04558857171096007 
0.17652886517918451 0.37398045718225603 -0.03208131615300655 
0.23581728136929103 0.40251391112471474 -0.045588571710960063 
-0.18461449984641212 -0.43001127359789842 -0.045588571710960063 
-0.19695181588854724 0.36190778279890312 -0.012518097523254954 
0.29882529191958074 0.3492968441493588 0.04558857171096007 
0.44319210358525857 0.2294183440753684 -0.045588571710960063 
0.39117656900591652 0.28827232397135544 -0.011121856337463378 
0.39576977716579687 0.24994922572825684 0.04558857171096007 
0.41608171970304342 0.21896568238205028 -0.045588571710960063 
0.43378706726985822 0.22095316175436125 -0.019237921376308035 
0.41739159333972858 0.24464141670680742 -0.023224528001002213 
0.41814426065867638 0.21665411385344602 0.04558857171096007 
-0.48934882287116643 -0.10275544393649659 -0.044169467856455445 
0.20915213827269097 -0.39312510434084358 -0.0105622794139972 
0.32435208838055807 -0.29059886834576676 0.010057477159441748 
0.19911538111909188 -0.39561116312767147 -0.045490054807492679 
0.28871244743979602 -0.36906274956893731 0.04558857171096007 
0.16517753876601404 -0.44057674421191545 0.04558857171096007 
0.15626583917938383 -0.45239346155939725 0.0075186951894300989 
0.39627168454604872 -0.3047804016736112 -0.042621849818297627 
0.20659461939970608 -0.42940546986271733 -0.0034872294101723185 
0.068049240398659311 -0.47930074835464009 -0.013734286645074093 
-0.44540588462754277 0.013912025089032175 -0.039054772024773553 
-0.15032414386257931 -0.41327119565420561 0.0066314504067913902 
-0.31868303551687094 -0.3393707988421597 -0.045588571710960063 
-0.44502957376235469 -0.12508078294907185 0.04558857171096007 
0.0070271364149566964 0.055058833875335805 -0.025887926331785778 
0.13958776169321793 -0.47955330904191878 -0.038584343553288158 
0.24092561759521922 -0.39669056374007189 -0.045588571710960063 
0.31899296942164795 0.35885535439142402 -0.013897311377512482 
0.14219421989793449 -0.46720548483400431 0.033974336004732465 
0.44033456632184381 0.14117056271159362 0.04558857171096007 
0.11906059550892395 -0.41544071019335854 0.0062674712502510856 
0.17440915615462585 -0.33111083347670944 0.035932501925433333 
0.07137937159071564 -0.42885690257931941 0.04558857171096007 
0.11514905046755188 -0.47803532357537315 -0.020168498096358008 
0.085855087971810976 -0.42366568633002061 -0.042004466585901949 
0.038716755559822666 0.11835232006167946 0.04558857171096007 
-0.11803478426256976 -0.20005166780774866 0.04558857171096007 
0.44333201491183949 0.15475709679575253 -0.045588571710960063 
0.26109495908015384 0.38383077987184328 0.04558857171096007 
0.0020945897215459246 -0.46556026166381331 0.04558857171096007 
-0.044442588989575829 -0.44449391944189381 0.04558857171096007 
-0.18837975116116373 0.39655092594492108 -0.014733565342692481 
0.25178581832534758 0.01052167139374563 -0.045588571710960063 
-0.39664058726833368 -0.25218454737067464 -0.045588571710960063 
-0.14542134371220994 0.44595387065665149 -0.045588571710960063 
-0.17587646992371483 0.40231671775777894 -0.045588571710960063 
0.12113095490460546 0.44627864364152026 -0.045588571710960063 
0.15978792105262921 0.32156613657187244 -0.045588571710960063 
0.055978412352460538 0.064454045853532441 -0.045588571710960063 
0.10043312790211148 -0.47077707589612777 -0.045588571710960063 
0.092852523432297898 -0.44835946561440954 0.04558857171096007 
-0.42627331844045874 -0.25560421451757126 0.04558857171096007 
0.09543007848254971 0.42396294661186196 0.04558857171096007 
0.090051196877802817 0.45287152611664416 0.04558857171096007 
0.035896259010923082 -0.10515875946566913 -0.019715096956406653 
0.4750124935480774 0.0025422580986045498 -0.0039455085272967457 
-0.12596863178028569 -0.47483764997842304 0.038248674899780379 
-0.095482231808587045 -0.4640123472999394 0.04558857171096007 
-0.082182860137635566 -0.47964555751677596 -0.0013652409570281136 
-0.098076267127512468 -0.45107741067124529 -0.045588571710960063 
-0.47301293320426296 0.057099013636544724 -0.0021044824416071892 
-0.49854041349381611 0.053247303595543236 -0.043634508761713181 
-0.47228809770834457 0.040801008072733069 -0.045588571710960063 
-0.15185603384349683 0.2011158190429117 0.039050486699032737 
0.29987752174324134 0.39873258983843501 -0.044517741750041327 
0.27573258327368078 0.39784226782720578 0.0058423806133322403 
0.17359394131529046 0.43257845724808591 -0.045588571710960063 
0.2299947089903672 0.42093003011307512 -0.012016326908718272 
0.27372812215840736 0.37376671516378918 -0.045588571710960063 
0.48647216120191905 0.10731829010761726 -0.045588571710960063 
0.42901116290884633 0.080279069985842888 -0.029484021251203876 
-0.17484409392303427 -0.44600579603983026 0.0076523608816866312 
-0.064250914575131407 0.47116797510426339 -0.0048422585271371875 
-0.49272499852065088 0.090295129927885229 0.04558857171096007 
-0.44258021377575402 0.14138897755866087 0.04558857171096007 
0.43704008539286537 0.05352272695153501 -0.018428359519864809 
-0.46562968166138619 0.12565000185545486 -0.014450118398079588 
-0.48061396135420309 0.081863546384229005 0.012373718516646358 
0.43356986051994134 -0.049376902240140394 0.021172928302579747 
0.28907373687060539 -0.32803964537197133 0.0088984105179764472 
0.14550148842127783 -0.19672602709000581 0.014435780792276502 
0.45664891538861385 0.073992907421190343 -0.045588571710960063 
-0.1613820850225039 -0.33595044786668737 0.04558857171096007 
0.23929758131656337 -0.39070722326300933 0.04558857171096007 
0.14798636190524123 -0.40827582790897721 0.042077111974923379 
0.18325956190659071 -0.39953866416914241 0.017433776445132651 
0.21428732616735691 -0.40971695104361822 0.04558857171096007 
0.22562062230041577 -0.44361818577361212 0.034453677041987353 
-0.46284178094125999 0.14649202551027057 -0.045588571710960063 
0.19239950067749179 -0.35758379794926198 0.04558857171096007 
0.00031260083622205835 -0.44485452504412754 -0.018407753485451452 
0.49741654122971163 0.048371697028199517 -0.045588571710960063 
-0.034653218220366211 0.49476136023897904 0.041775178864481684 
-0.023191202755081537 0.45999134409788922 0.04558857171096007 
-0.032098708193114257 0.49020102143930233 -0.042167833232628175 
-0.024993934440533834 0.48245208116844607 0.015013205641567525 
-0.055721042070866311 0.47524940595811632 -0.045588571710960063 
-0.35165414941253198 0.33760579169979815 0.04558857171096007 
-0.16152812801197994 -0.41062338861494724 0.045239773548799524 
-0.14159096912276919 -0.43560287147824867 0.04558857171096007 
-0.25281600607458604 -0.3612158166631883 0.03925451835172513 
-0.47228951095406763 -0.17191583738775301 -0.045484538590315655 
-0.42963369764984527 -0.21990243635356713 -0.045588571710960063 
0.1290523567422443 -0.17071966164891497 -0.045588571710960063 
-0.087608401645528661 -0.20825391804141288 -0.00094024149725269299 
-0.077397085850848243 0.46893910424474278 0.04558857171096007 
0.12490208714510775 0.27885971995305109 -0.01068798990049017 
-0.11674847991745917 -0.47477952454949146 -0.010637591734463705 
0.083390410225115494 0.10680601132730122 -0.025463018049153779 
0.30699977871307288 0.3825460483324567 0.020255572268325951 
-0.099804849001076862 -0.42521036390530315 -0.012757460319023348 
-0.28444196077905765 -0.029234594778230285 0.04558857171096007 
-0.4005379998524754 0.16948412017840445 -0.024919465508643997 
-0.47335363939494485 0.015907459667106792 0.04558857171096007 
-0.45849103560002452 0.078654794764353095 0.04558857171096007 
0.093688709014620355 -0.17123374117781362 -0.045588571710960063 
-0.48681692477548311 -0.10307087126416471 0.04558857171096007 
0.25740335610300136 -0.42722847879780396 -0.037785973691199973 
-0.47309412645048027 -0.10281135831970015 -0.018377801793837353 
-0.46829123365501546 -0.14882011989612012 -0.015053483144674144 
0.46790972569265227 0.043750429102431203 -0.045588571710960063 
0.43459599088629752 -0.045818850983815107 -0.024105002880741841 
0.45296818528581434 -0.14691572569575229 -0.045588571710960063 
0.3543159293490199 -0.34154439355848076 -0.020413673435019552 
0.48562227625379739 0.021310480420574596 -0.033151074782490082 
0.45226976836720251 -0.17186097154169885 0.021550036967772811 
0.49159162103934462 -0.078390175899856904 -0.038759973525804632 
0.47873158643397168 0.14265055010361827 0.04558857171096007 
0.32118334073235849 0.37624497830485465 -0.03892169898394926 
0.20440974151188659 0.4184754958235854 -0.045588571710960063 
-0.33882226575019048 -0.33985123400513573 -0.0063245709363190525 
-0.15468238852386121 -0.29086421662741041 -0.045588571710960063 
-0.34375492641503053 -0.3589148474775069 -0.045588571710960063 
-0.44234139804284622 -0.045705608971685047 -0.045588571710960063 
-0.45774511538968976 -0.1896954031493133 -0.028624904617310834 
-0.42100175233351944 -0.24668524355375321 -0.012975008983228049 
-0.33013249133064931 -0.36569872327381386 -0.01736894949615966 
-0.26178628697586481 -0.40849365010461214 -0.019101018895460023 
-0.40151254674994058 -0.24235783956123377 0.04558857171096007 
-0.24624354727958864 -0.36804275086547633 -0.018158862678195463 
-0.25041036552825624 -0.39962241037537544 -0.045588571710960063 
-0.44383155168636235 -0.21851658936212565 0.023599311649038026 
0.40170173932254111 0.17128678348099927 -0.045080897376386812 
0.4561759795456844 0.19093176521411445 -0.036301974504864797 
-0.47406140197075752 0.1589759543990282 0.040314589409720096 
0.13137805772807892 0.48112786992595774 -0.042653397109921609 
0.30710358389085873 0.34157817469011847 -0.045588571710960063 
-0.48493580354097382 0.12681153027979258 -0.043477387749311362 
-0.1932968661230503 -0.39537831949765773 -0.045588571710960063 
0.42931740413931474 -0.16061030469486615 0.04558857171096007 
-0.061406962706086567 0.48678652859529481 0.030907136900019071 
0.47061832509228729 0.11408087604093524 0.028858318104470961 
0.49304477955691745 0.072642414367110733 0.04558857171096007 
-0.38542919497603007 -0.31226394807425217 -0.045588571710960063 
0.46702314194430333 0.042233446584463138 0.04558857171096007 
0.46621048006498378 0.13979852905738063 0.0092023039370017091 
0.058456880642098585 0.46467910295549797 -0.045588571710960063 
0.4634323125049179 0.156371638857182 -0.015908701955685896 
0.42365231748136645 -0.090235955961804476 0.04558857171096007 
0.019836362557157813 0.49917077807200649 0.04558857171096007 
-0.15069956575061905 -0.45239134169081269 -0.045588571710960063 
0.0062507402444331624 0.47315513535657244 0.04558857171096007 
-0.22013816346074155 0.31250246748144389 -0.041232059415403158 
-0.11172776492635939 0.48596212765875968 0.04558857171096007 
0.34863274402810218 0.25705600537799256 0.044580653979002453 
-0.047148065572048571 0.11753735595948848 0.040983875231008701 
0.15643020877468772 -0.28941960596703348 -0.045588571710960063 
0.28853540422155649 -0.40896364548466629 0.04558857171096007 
-0.3916539269403021 -0.21460123767501571 -0.0053142598043466084 
-0.41938328965492278 -0.23807787047757953 0.015848935338172845 
-0.42383369161391843 -0.21350898108539285 0.04558857171096007 
-0.31019410155000238 -0.30161641803115546 -0.0039096531156460742 
-0.49688349685498123 -0.058546997851228265 0.044670281110986212 
-0.5 -0.0044546075047359676 0.04558857171096007 
-0.16922733115109961 0.46769907229991886 -0.037976944218097185 
-0.18311764468285444 0.43916500291174215 -0.045588571710960063 
-0.25264044448492712 0.41952293884721642 -0.045588571710960063 
-0.20695041540762429 0.33775188027784586 -0.045588571710960063 
-0.17002362673317495 0.40109770214451385 0.033419887795583768 
0.43180296145185382 -0.2051341781078026 0.010304795160973709 
0.45389502374298402 -0.14589910054659791 0.04558857171096007 
-0.085085484498472405 0.053080130303079225 -0.045588571710960063 
-0.26914808909575161 0.39912187065227483 -0.013479264174922984 
0.36182468622981701 -0.25082924472227947 -0.038717872479829558 
-0.49580598816830684 -0.00068254069851360463 -0.042734590356138837 
-0.49515436791855622 -0.026861436089244611 0.028032572305070339 
-0.4737206273972181 -0.12642895098599424 -0.036954939617480878 
0.44620983908966555 -0.21825689406337417 -0.043671389916227349 
0.41397789829572595 -0.27277715594965968 0.033907913455749596 
0.39759379871423811 -0.24249861707067721 -0.045588571710960063 
0.046227472749203323 -0.07259543534396265 0.04558857171096007 
0.36629888542324579 0.3384465589335775 -0.045588571710960063 
0.34595840444010817 0.32795432636001415 -0.008496182549770635 
0.38506922761380019 0.27849694889366117 -0.045588571710960063 
0.25752560185804435 0.35169015298704076 -0.026042699532744486 
-0.14965752497273577 0.28427985921519633 0.04558857171096007 
0.46889594326447537 -0.026808781288918421 -0.045588571710960063 
0.055047584895266184 -0.010602910228534658 -0.0095427821848249987 
0.4080135910473528 -0.0079903887437804792 -0.045588571710960063 
0.49519054245020888 -0.059427130816680072 0.041532077805832991 
0.4181782697331729 -0.1715532942712216 -0.045588571710960063 
-0.045803863740865064 -0.084095927563771405 0.04558857171096007 
0.17519770167951038 -0.24516858015578713 -0.031193661073222446 
0.35884385467420993 0.30143948878434523 0.04558857171096007 
0.32399948357265973 -0.3344238461600883 0.04558857171096007 
-0.4800239768534057 0.089340915533403162 -0.0179138013109632 
0.46685688042327356 -0.066890595451482335 0.04558857171096007 
0.37549505769735231 0.30397799722292651 0.019482595240680772 
0.39383784746811562 0.30701405933316139 0.04493006758688111 
-0.09829190107170524 -0.22793801476905609 -0.039528026987705037 
0.1182264614123285 0.17099036658773456 -0.044600576184840139 
0.30157362175946179 -0.39618067835977067 -0.035801138456048189 
0.26981158516843284 -0.40116553793921972 -0.014108773967393774 
0.36593957909530567 -0.0142720380398337 -0.020584220281790255 
0.39575673883428741 -0.18048787932085067 -0.0083731845832944653 
0.11709584203961085 0.26444764521806435 -0.045588571710960063 
0.11430846558805932 0.19710500488663898 0.04558857171096007 
0.44297072548103011 -0.016781415381091729 -0.035996759017259926 
-0.41749273158606925 0.11757455623400465 0.04558857171096007 
-0.19904360191293294 0.016177845485924429 0.04558857171096007 
-0.0099137135985512149 0.46757550447629631 -0.045588571710960063 
0.47229295289123185 0.16280115468557971 -0.045071551719186066 
-0.047652571500887919 -0.036419171325590818 -0.045588571710960063 
-0.13927461379413536 -0.027581872287992915 -0.044132586701941277 
-0.058287997778195356 -0.064907674936342447 -0.045588571710960063 
0.4135647746588812 -0.12731576267720168 -0.045588571710960063 
0.36539750818337652 0.33947512828852022 0.043782170145484994 
-0.16781376630805783 -0.35227247860779071 -0.045588571710960063 
0.40068725683625717 -0.16339198257495383 0.044672264213855631 
0.34281609816350089 0.32176882336169949 -0.045588571710960063 
0.070271934006713041 0.49302092533676967 -0.045588571710960063 
0.1013846069822909 0.4712224990360297 -0.045588571710960063 
0.069109539399512837 0.42964838856707915 -0.041095316494556132 
0.035342221098919803 0.48896210641448529 -0.018467200982962544 
0.080691817516971062 0.48070232340332186 0.037023140120760488 
0.42426306757657806 0.096101928660997038 0.045171481868376502 
-0.17624411896027786 -0.47048216342572957 -0.045588571710960063 
-0.19340591398658294 -0.44565613169480717 -0.023727825832691216 
0.067050007289612634 -0.46964358444339227 -0.045588571710960063 
0.048856428914059273 -0.49729847822612316 -0.045588571710960063 
0.14490199870327863 0.46980047751293558 0.022943839164977841 
0.13275057006229496 0.45497988358684677 -5.8171017503177431e-05 
0.41661266700347499 -0.10817307582719779 0.018708820413030642 
-0.31908731497080373 0.36773947289216907 -0.0060301371459238152 
-0.04930194323110465 0.43100024927831021 -0.043785771642650149 
-0.25487250654446741 0.41141366650555672 0.023332572915957205 
0.18507403264925856 0.45183652877309022 0.039610724656788728 
0.062433776901018381 0.46984150722747536 -0.0015305223237662021 
0.00042969508266168843 0.44458270318530085 0.04558857171096007 
0.058269899115226127 0.46446702491989855 0.04558857171096007 
-0.03940783271838913 0.10491098557842005 0.0026675240965234083 
-0.083216284675465463 0.04640881269032654 0.04558857171096007 
-0.088952512299568728 -0.049779107414060296 0.044781653991676086 
-0.053960502608532475 -0.14625877158311154 0.0454638869673306 
-0.46907316883700179 -0.06917695349993043 0.04558857171096007 
-0.24365990615501337 -0.43910835911139129 -0.044041523529948633 
0.0045854125141176318 -0.49917077807200649 0.043144249261533534 
0.037782964845467046 -0.47713718312409553 0.0045076156164928962 
-0.082894816862045584 -0.49427989933313954 0.041900593025258545 
-0.060075935972127542 -0.46831280844657769 0.04558857171096007 
-0.34208554130183272 0.27190196934423849 0.040168911128817715 
-0.099965320773499441 0.20369663367604088 -0.0088461660147956776 
-0.032823976780463948 -0.48480901032590273 0.014360103763236308 
-0.077909752134023805 -0.43233537898372321 0.04558857171096007 
-0.0068270709680031015 0.099233202503250226 0.039733563063263908 
-0.081367394561155743 0.17195554503371321 0.04558857171096007 
-0.063817959909592353 0.029672997278088729 -0.045588571710960063 
-0.11205025848264277 0.19304823745008162 0.04558857171096007 
-0.077865234893748053 0.44465844859719861 -0.045588571710960063 
-0.033361260892363478 0.085486401795241473 0.04558857171096007 
-0.13885791145441131 0.46179293606904875 0.016795832766895332 
-0.14490940684618173 0.47240445114049395 0.04558857171096007 
-0.10899625726943965 0.45159566155445535 0.04558857171096007 
0.43596326053476669 -0.23452768324987439 0.036545827774946735 
0.43272250573754972 -0.20357304305813248 0.04558857171096007 
-0.37141228198063381 -0.23802820172870046 -0.045194481302804665 
-0.34528155091591545 -0.3061792414079903 -0.045588571710960063 
0.3586206302328272 -0.014464854903885171 0.018130324232304412 
0.48900946154335001 0.05126666250898889 0.02258327915131586 
-0.33515917842464316 -0.27568481784767057 -0.045072486284906142 
0.19123683253886134 -0.4252785872028686 -0.045588571710960063 
0.22292132296940981 -0.444462349355984 -0.045588571710960063 
0.073998662978368893 -0.4770974070952777 0.016313049792476272 
0.33050672791582464 0.27588374358033135 -0.041275117821384155 
0.32634827517006598 0.28020314677851554 -0.013586169375585181 
0.38801999350636379 0.30917641646655569 -0.03646306172300548 
0.07988161742052384 -0.092641824450992852 0.04558857171096007 
0.49908300867431998 -0.0053624811160739054 0.042925469705892637 
0.48873903013596071 -0.031684775359121758 0.042565593520806314 
-0.34386655003286482 -0.26664036434021809 0.041913175471050765 
-0.35783032954793192 -0.33371875051572075 -0.045588571710960063 
-0.29388672753470413 -0.36195834052493059 -0.045588571710960063 
-0.35201598590620192 -0.30903987869428134 0.04558857171096007 
-0.39479887735406854 -0.034313640346834276 -0.045472959093101069 
-0.48734591176733122 -0.0083634172318054183 0.0077612263909324066 
-0.47902973569296142 -0.050214295919613135 0.015088084870602776 
-0.1730141914488422 -0.36561144395327322 -0.0043956272900849093 
-0.43452854259445112 -0.11450035928353371 -0.045588571710960063 
-0.26533649699785578 -0.40904627477089239 0.013045397737949787 
-0.13356143119303193 -0.47841400504629022 -0.044424034440889444 
-0.19722717086168146 -0.32136670936492301 -0.045588571710960063 
0.3832146845165984 -0.22397543332165357 -0.026577590244629183 
-0.43620421893054501 -0.18236590053248369 -0.045588571710960063 
-0.43957526586571194 -0.21710997677626986 -0.01090797755328141 
-0.46115210891365083 0.14285519720202874 0.014356137557497456 
-0.39928752812472962 -0.18916249554029801 -0.018505449794628041 
-0.31646198309739881 -0.29510589131082743 -0.031396689777337207 
-0.34054259609227533 -0.35957503837873916 0.043765074431093384 
-0.40216861188543301 -0.17956126880653955 0.044242477954050556 
-0.37516449496387611 -0.31184268687735706 0.0099086760613771776 
0.44924963946278068 0.21518873759865478 0.041978344334311579 
0.43468085401253748 0.19457315237952735 -0.0081159510674153734 
0.43569866446455635 0.17540406974650288 0.04558857171096007 
0.41376807689442618 0.27501028934063515 -0.038495628192738635 
-0.41915926741353515 0.10491786945274835 -0.045538561047793143 
0.048863517936960324 -0.43852113271918242 -0.045588571710960063 
-0.042935362425953902 -0.12594523344585509 -0.04470082545403254 
0.052769182052581645 -0.10538699864994007 -0.045588571710960063 
-0.031803841311287766 -0.049004694346406287 0.04558857171096007 
0.10200066814610698 0.024378887622438367 -0.0039253355843146456 
0.1524189843212696 0.024537832177708597 0.04558857171096007 
0.08568378891360702 0.049236147524982746 -0.033645687991268144 
-0.31547234638269733 0.01338064469716921 -0.020345313371738966 
-0.4324316278557479 0.2096348870556812 0.010946294747804484 
-0.40559019375234162 0.28911464121657293 -0.042162089072592591 
-0.39264103348927359 0.19686545973658379 -0.04437568776058997 
-0.42395675796325216 0.19447219648747349 -0.045588571710960063 
-0.40038290753151468 0.24346425140237291 0.04558857171096007 
-0.32157932306623993 0.29774667771004221 -0.045588571710960063 
-0.33890918036215745 0.27527297069083373 -0.010322073229652153 
-0.38126900986454637 0.25201819467250119 -0.045588571710960063 
-0.44449456907904067 0.23019603952018566 0.04558857171096007 
0.13882634136850147 -0.18583705997112787 0.042191106198486629 
0.33013465678780562 -0.28446182599918074 -0.033285424303322285 
0.14279259269592673 -0.27953568450009536 0.043593091544313789 
0.22912344300211315 -0.42721658018058728 -0.021716207311659245 
0.31525224475847685 -0.37493266567958294 -0.018805832893631556 
0.13931432144009559 -0.27386166248209171 0.0062312967185984332 
-0.21492716177132026 0.44815771339030264 -0.041782906127386686 
-0.00032363327057611412 0.49733406010634357 -0.045588571710960063 
-0.022161995160134864 0.48660210002843812 -0.012990486303323922 
-0.40799122985292857 0.14364116697261153 -0.041054377957159688 
-0.39715382340865574 0.18133142745750436 0.04558857171096007 
0.40846357304442577 0.15026361363649005 0.04558857171096007 
0.40275718314050746 0.1677693972306401 0.015882123818378415 
-0.27801463320210207 0.37280372496925279 0.04558857171096007 
-0.24951046991696774 0.3888866892403039 -0.045588571710960063 
0.092227982794143626 0.2186585521744335 0.044709031396940525 
0.10558080706542626 0.20874139663871813 -0.045588571710960063 
0.043538180109687921 0.12666870128462213 -0.045588571710960063 
0.066249335204653009 0.43420510307530469 0.04558857171096007 
0.4670412406072727 0.12979940526972883 -0.030198599318487319 
0.28071778476741754 0.32760008036353416 -0.039878124424159354 
0.28465599912324063 0.32350953179533903 -0.00037640204233153673 
-0.077591635080624721 0.079970526532503153 -0.014030771921196322 
-0.090714966481914447 0.14188245105314615 0.04558857171096007 
0.34555877502048982 -0.35749314507441476 0.034400497973086523 
0.31438811338169553 -0.36811024474589438 0.019937455214926875 
0.25244031065511602 0.42539098582642193 0.044801849728944042 
-0.48617966492582149 0.031737954428022519 -0.0036997861257746707 
-0.13450604919316894 0.00086072363104579502 -0.045588571710960063 
0.48846173764852868 0.018706803118732362 0.031914872277689847 
-0.13060827190045354 0.16645501032535559 -0.044144416936300272 
0.48887217155964247 -0.026043166815604521 -0.016170471534450229 
-0.2745251927462018 -0.41582098726428551 -0.045588571710960063 
-0.25208490215005736 -0.015484238161628073 0.04558857171096007 
0.17811872102903253 0.28635769513663856 0.04558857171096007 
0.3990473219403845 0.26203678478027359 -0.0038484732524099682 
-0.049056425978155231 -0.09297512249877167 -0.045588571710960063 
0.47913618500790645 0.084613699766978578 0.0084510954523485098 
-0.0031617042138701932 -0.097774846888502548 0.04558857171096007 
-0.073456523683582103 -0.43143723853244559 -0.040000871653491109 
0.044900708546699288 -0.46373840557252821 0.04558857171096007 
0.12298315019036422 -0.45151802421683168 -0.045588571710960063 
-0.065722809995677312 -0.48877856682477705 0.019692029139120923 
0.033028692261731982 -0.49341305543634151 0.042568784720826085 
-0.0043137502152920696 -0.49395305206825779 -0.04005751545384198 
-0.025683393204804603 -0.47510552842579656 -0.045588571710960063 
0.030597750058102627 -0.49059066696171594 -0.025050122355167612 
0.39010061033068039 0.2099472827433306 0.043900723226219344 
-0.32235690453962795 -0.38419478182266942 -0.045588571710960063 
-0.30213269720863911 -0.38140122811965105 -0.019799299048356797 
0.43100030626402486 0.0036820863628078812 0.04558857171096007 
0.27584163113721322 0.40793676290687686 -0.030555170332124591 
0.33864807181768297 0.35439501412379537 -0.035051206451402903 
0.32402391904709682 0.35616129774616484 0.017692993063881175 
-0.15360608793433714 -0.41510636360843034 -0.045588571710960063 
0.031500540543694749 0.045346940883749 0.04390359530623713 
-0.43360061001156042 -0.074815097311997564 -0.044465816366862539 
0.29099732385966354 0.3182470378141703 0.04558857171096007 
-0.33663519961092891 0.012823142053715897 -0.042887973105660358 
0.27391394117670126 -0.016696461077708405 0.040587368628552625 
